ncols        162
nrows        32
xllcorner    241805
yllcorner    52330
cellsize     5.000000000000
NODATA_value  -9999
90.410003662109375 90.620002746582031 90.769996643066406 91.010002136230469 91.349998474121094 91.599998474121094 91.980003356933594 92.319999694824219 92.589996337890625 92.839996337890625 93.150001525878906 93.339996337890625 93.610000610351563 93.819999694824219 94.05999755859375 94.230003356933594 94.279998779296875 94.30999755859375 94.319999694824219 94.379997253417969 94.400001525878906 94.370002746582031 94.279998779296875 94.169998168945313 94.029998779296875 93.949996948242187 93.699996948242188 93.519996643066406 93.389999389648437 93.050003051757813 92.800003051757813 92.589996337890625 91.980003356933594 91.610000610351563 91.30999755859375 90.889999389648438 90.5 90.180000305175781 89.779998779296875 89.330001831054688 88.709999084472656 87.94000244140625 87.239997863769531 86.379997253417969 85.5 84.55999755859375 83.569999694824219 82.650001525878906 81.669998168945313 80.819999694824219 79.790000915527344 78.339996337890625 77.470001220703125 76.510002136230469 75.620002746582031 74.709999084472656 73.760002136230469 72.760002136230469 71.699996948242188 70.599998474121094 69.480003356933594 68.300003051757813 67.160003662109375 65.930000305175781 64.720001220703125 63.479999542236328 62.200000762939453 61 59.779998779296875 58.619998931884766 57.5 56.310001373291016 54.700000762939453 53.549999237060547 52.590000152587891 51.560001373291016 50.490001678466797 49.409999847412109 48.270000457763672 47.279998779296875 46.569999694824219 44.880001068115234 44.040000915527344 43.159999847412109 41.680000305175781 40.680000305175781 39.619998931884766 38.509998321533203 37.279998779296875 36.029998779296875 35.080001831054688 34.209999084472656 33.439998626708984 32.650001525878906 31.959999084472656 31.079999923706055 29.979999542236328 28.75 27.389999389648438 26.180000305175781 25.139999389648438 24.329999923706055 23.639999389648438 23.159999847412109 22.510000228881836 21.780000686645508 21.180000305175781 20.770000457763672 20.239999771118164 19.440000534057617 19.010000228881836 18.059999465942383 17.879999160766602 16.790000915527344 16.659999847412109 16.610000610351563 16.049999237060547 15.680000305175781 15.420000076293945 14.890000343322754 13.970000267028809 13.779999732971191 13.149999618530273 12.729999542236328 12.300000190734863 11.829999923706055 11.420000076293945 10.409999847412109 10.310000419616699 10.199999809265137 10.100000381469727 10.199999809265137 9.2200002670288086 8.3100004196166992 8.3900003433227539 8.5399999618530273 8.25 7.8400001525878906 7.9600000381469727 7.7600002288818359 7.3600001335144043 6.9499998092651367 5.9800000190734863 5.9499998092651367 5.9000000953674316 5.75 5.3899998664855957 5 3.9200000762939453 2.9500000476837158 2.6700000762939453 2.6099998950958252 3.0299999713897705 3.2599999904632568 3.3399999141693115 3.2100000381469727 3.380000114440918 3.559999942779541 3.6500000953674316 3.7100000381469727 3.8399999141693115 3.940000057220459
90.449996948242188 90.669998168945313 90.739997863769531 91.069999694824219 91.370002746582031 91.760002136230469 92.139999389648438 92.580001831054688 92.75 92.989997863769531 93.349998474121094 93.580001831054688 93.819999694824219 93.959999084472656 94.260002136230469 94.400001525878906 94.379997253417969 94.5 94.459999084472656 94.5 94.510002136230469 94.430000305175781 94.370002746582031 94.260002136230469 94.180000305175781 93.989997863769531 93.819999694824219 93.669998168945313 93.540000915527344 93.199996948242188 92.860000610351563 92.709999084472656 92.150001525878906 91.639999389648437 91.349998474121094 91.069999694824219 90.680000305175781 90.269996643066406 89.919998168945313 89.419998168945313 88.80999755859375 88.089996337890625 87.370002746582031 86.569999694824219 85.75 84.80999755859375 83.900001525878906 83.120002746582031 81.889999389648438 80.629997253417969 79.69000244140625 78.760002136230469 77.849998474121094 76.879997253417969 75.970001220703125 75.029998779296875 74.050003051757813 73.029998779296875 72 70.889999389648438 69.779998779296875 68.639999389648438 67.519996643066406 66.290000915527344 65.080001831054687 63.889999389648437 62.659999847412109 61.400001525878906 60.240001678466797 59.139999389648438 57.75 56.25 55.270000457763672 54.150001525878906 53.049999237060547 51.979999542236328 50.849998474121094 49.810001373291016 48.639999389648438 47.549999237060547 46.720001220703125 44.959999084472656 44.330001831054688 43.680000305175781 41.830001831054688 41.060001373291016 39.950000762939453 38.849998474121094 37.540000915527344 36.459999084472656 35.5 34.580001831054687 33.709999084472656 32.959999084472656 32.200000762939453 31.360000610351563 30.360000610351563 29.149999618530273 27.819999694824219 26.540000915527344 25.450000762939453 24.530000686645508 23.799999237060547 23.139999389648438 22.569999694824219 21.860000610351563 21.170000076293945 20.569999694824219 20.129999160766602 19.940000534057617 19.030000686645508 18.850000381469727 18.809999465942383 16.860000610351563 16.969999313354492 16.739999771118164 16.319999694824219 16.110000610351563 15.210000038146973 14.510000228881836 13.949999809265137 13.729999542236328 13.289999961853027 12.760000228881836 12.279999732971191 11.949999809265137 11.039999961853027 10.319999694824219 10.390000343322754 10.460000038146973 10.359999656677246 10.210000038146973 10.069999694824219 8.6000003814697266 8.1700000762939453 8.369999885559082 8.1800003051757812 8.119999885559082 8.1999998092651367 7.7300000190734863 7.4899997711181641 6.4499998092651367 5.9200000762939453 6.0199999809265137 5.9000000953674316 5.7800002098083496 5.2800002098083496 4.8499999046325684 3.3199999332427979 2.869999885559082 2.6700000762939453 2.880000114440918 3.1600000858306885 3.2899999618530273 3.1400001049041748 3.3499999046325684 3.4300000667572021 3.619999885559082 3.75 3.8599998950958252 3.9300000667572021 3.9800000190734863
90.44000244140625 90.620002746582031 90.80999755859375 91.30999755859375 91.510002136230469 91.949996948242188 92.30999755859375 92.680000305175781 93.010002136230469 93.239997863769531 93.449996948242188 93.769996643066406 93.94000244140625 94.139999389648438 94.300003051757812 94.389999389648438 94.430000305175781 94.470001220703125 94.489997863769531 94.510002136230469 94.55999755859375 94.44000244140625 94.349998474121094 94.25 94.129997253417969 93.930000305175781 93.80999755859375 93.650001525878906 93.459999084472656 93.180000305175781 92.860000610351563 92.629997253417969 92.300003051757813 91.720001220703125 91.459999084472656 91.110000610351563 90.730003356933594 90.379997253417969 89.959999084472656 89.449996948242188 88.849998474121094 88.239997863769531 87.55999755859375 86.760002136230469 85.949996948242187 85.029998779296875 83.849998474121094 82.870002746582031 81.949996948242188 81.05999755859375 80.099998474121094 79.220001220703125 78.290000915527344 77.290000915527344 76.300003051757813 75.330001831054687 74.339996337890625 73.349998474121094 72.300003051757813 71.230003356933594 70.110000610351563 68.970001220703125 67.879997253417969 66.709999084472656 65.449996948242188 64.199996948242188 63.060001373291016 61.930000305175781 60.889999389648438 59.090000152587891 58.009998321533203 56.970001220703125 55.799999237060547 54.700000762939453 53.509998321533203 52.380001068115234 51.25 50.169998168945313 49.069999694824219 47.889999389648437 46.939998626708984 45.779998779296875 44.470001220703125 43.930000305175781 42.200000762939453 41.310001373291016 40.330001831054687 39.139999389648438 37.950000762939453 36.860000610351562 35.930000305175781 34.919998168945313 34.040000915527344 33.259998321533203 32.430000305175781 31.510000228881836 30.690000534057617 29.579999923706055 28.299999237060547 27 25.809999465942383 24.840000152587891 23.969999313354492 23.219999313354492 22.719999313354492 22.069999694824219 21.450000762939453 20.940000534057617 20.120000839233398 20.079999923706055 19.620000839233398 18.879999160766602 18.559999465942383 18.069999694824219 17.5 17.020000457763672 16.700000762939453 15.939999580383301 15.159999847412109 14.649999618530273 14.359999656677246 13.909999847412109 13.359999656677246 12.779999732971191 12.359999656677246 12.069999694824219 11.300000190734863 10.369999885559082 10.340000152587891 10.479999542236328 10.380000114440918 10.25 10.109999656677246 9.619999885559082 8.1499996185302734 8.130000114440918 8.1499996185302734 8.3000001907348633 8.2399997711181641 7.929999828338623 7.4499998092651367 6.6500000953674316 6.2300000190734863 6.0300002098083496 5.8000001907348633 5.429999828338623 5.2199997901916504 4.690000057220459 2.9500000476837158 2.630000114440918 2.6099998950958252 2.9800000190734863 3.2000000476837158 3.3399999141693115 3.309999942779541 3.4200000762939453 3.5399999618530273 3.7400000095367432 3.8299999237060547 3.940000057220459 3.9700000286102295 4.0199999809265137
90.489997863769531 90.610000610351563 90.849998474121094 91.360000610351562 91.620002746582031 92.199996948242187 92.599998474121094 92.779998779296875 93.150001525878906 93.319999694824219 93.569999694824219 93.80999755859375 93.970001220703125 94.199996948242188 94.419998168945313 94.330001831054688 94.30999755859375 94.349998474121094 94.419998168945313 94.449996948242188 94.449996948242188 94.349998474121094 94.239997863769531 94.160003662109375 94.040000915527344 93.919998168945313 93.769996643066406 93.580001831054688 93.419998168945313 93.150001525878906 92.819999694824219 92.510002136230469 92.300003051757813 91.839996337890625 91.480003356933594 91.180000305175781 90.860000610351563 90.470001220703125 90.040000915527344 89.529998779296875 88.959999084472656 88.44000244140625 87.779998779296875 86.769996643066406 85.730003356933594 84.949996948242188 84.080001831054688 83.199996948242187 82.319999694824219 81.389999389648438 80.5 79.5 78.480003356933594 77.550003051757813 76.589996337890625 75.610000610351563 74.669998168945313 73.610000610351563 72.599998474121094 71.510002136230469 70.489997863769531 69.370002746582031 68.239997863769531 67.040000915527344 65.839996337890625 64.69000244140625 63.650001525878906 62.430000305175781 60.880001068115234 59.790000915527344 58.650001525878906 57.490001678466797 56.360000610351563 55.159999847412109 53.959999084472656 52.849998474121094 51.700000762939453 50.599998474121094 49.490001678466797 48.299999237060547 47.169998168945313 46.270000457763672 44.509998321533203 44.130001068115234 42.599998474121094 41.689998626708984 40.709999084472656 39.490001678466797 38.389999389648438 37.270000457763672 36.209999084472656 35.259998321533203 34.349998474121094 33.470001220703125 32.639999389648438 31.760000228881836 30.909999847412109 29.879999160766602 28.860000610351562 27.600000381469727 26.379999160766602 25.280000686645508 24.340000152587891 23.540000915527344 23 22.340000152587891 21.739999771118164 21.329999923706055 20.149999618530273 20.079999923706055 19.729999542236328 19.079999923706055 18.649999618530273 18.170000076293945 17.680000305175781 17.319999694824219 16.319999694824219 15.630000114440918 15.560000419616699 15.039999961853027 14.420000076293945 13.869999885559082 13.359999656677246 12.939999580383301 12.869999885559082 12.270000457763672 11.579999923706055 10.869999885559082 10.310000419616699 10.350000381469727 10.279999732971191 10.210000038146973 10.180000305175781 9.8400001525878906 8.6800003051757813 8.1000003814697266 8.0799999237060547 8.2100000381469727 8.4200000762939453 7.75 6.8000001907348633 6.559999942779541 6.2600002288818359 6.1999998092651367 6.0199999809265137 5.630000114440918 5.0500001907348633 3.0899999141693115 2.8900001049041748 2.7100000381469727 2.9200000762939453 3.0899999141693115 3.3399999141693115 3.1600000858306885 3.4000000953674316 3.5199999809265137 3.6099998950958252 3.7200000286102295 3.8599998950958252 3.9000000953674316 3.9900000095367432 4.070000171661377
90.449996948242188 90.639999389648437 90.919998168945313 91.349998474121094 91.699996948242187 92.260002136230469 92.599998474121094 92.879997253417969 93.209999084472656 93.430000305175781 93.720001220703125 93.830001831054688 94 94.209999084472656 94.300003051757812 94.279998779296875 94.25 94.30999755859375 94.230003356933594 94.269996643066406 94.230003356933594 94.25 94.19000244140625 94.029998779296875 93.900001525878906 93.760002136230469 93.629997253417969 93.5 93.300003051757813 93.099998474121094 92.830001831054687 92.5 92.209999084472656 91.870002746582031 91.680000305175781 91.360000610351562 90.889999389648438 90.510002136230469 90.05999755859375 89.489997863769531 89.069999694824219 87.870002746582031 87.199996948242188 86.55999755859375 85.900001525878906 85.080001831054687 84.290000915527344 83.44000244140625 82.580001831054687 81.650001525878906 80.699996948242188 79.75 78.779998779296875 77.819999694824219 76.860000610351563 75.900001525878906 74.949996948242188 73.919998168945313 72.889999389648437 71.900001525878906 70.830001831054687 69.75 68.599998474121094 67.44000244140625 66.300003051757813 65.25 63.990001678466797 62.389999389648438 61.400001525878906 60.310001373291016 59.169998168945313 58.020000457763672 56.810001373291016 55.599998474121094 54.400001525878906 53.319999694824219 52.130001068115234 51.049999237060547 49.909999847412109 48.709999084472656 47.419998168945313 46.430000305175781 44.900001525878906 44.189998626708984 43.099998474121094 42.060001373291016 40.979999542236328 39.810001373291016 38.770000457763672 37.680000305175781 36.569999694824219 35.610000610351563 34.650001525878906 33.720001220703125 32.860000610351562 32 31.200000762939453 30.280000686645508 29.309999465942383 28.129999160766602 26.920000076293945 25.850000381469727 24.809999465942383 24.010000228881836 23.309999465942383 22.680000305175781 21.950000762939453 21.469999313354492 20.239999771118164 20.180000305175781 19.840000152587891 19.239999771118164 18.799999237060547 18.309999465942383 17.879999160766602 17.280000686645508 17.200000762939453 15.779999732971191 15.529999732971191 15.399999618530273 14.680000305175781 13.800000190734863 13.420000076293945 12.840000152587891 12.640000343322754 12.300000190734863 11.880000114440918 11.260000228881836 10.5 10.470000267028809 10.270000457763672 10.210000038146973 10.170000076293945 10.020000457763672 8.7700004577636719 8.119999885559082 8.119999885559082 7.9699997901916504 8.0399999618530273 7.630000114440918 7.4099998474121094 6.5900001525878906 6.4099998474121094 6.2399997711181641 6.0799999237060547 5.059999942779541 5.0100002288818359 2.9500000476837158 2.690000057220459 2.7000000476837158 2.9600000381469727 3.130000114440918 3.2999999523162842 3.25 3.4200000762939453 3.5299999713897705 3.6800000667572021 3.8399999141693115 3.9500000476837158 4.0399999618530273 4.0199999809265137 4.059999942779541
90.430000305175781 90.580001831054687 90.959999084472656 91.260002136230469 91.760002136230469 92.209999084472656 92.620002746582031 93.050003051757813 93.330001831054688 93.5 93.75 93.860000610351563 93.970001220703125 94.129997253417969 94.300003051757812 94.150001525878906 94.120002746582031 94.160003662109375 94.160003662109375 94.139999389648438 94.150001525878906 94.05999755859375 94 93.879997253417969 93.779998779296875 93.629997253417969 93.550003051757813 93.279998779296875 93.110000610351562 92.879997253417969 92.610000610351563 92.30999755859375 92.269996643066406 92.05999755859375 91.699996948242187 91.279998779296875 90.800003051757812 90.269996643066406 89.800003051757812 89.269996643066406 88.419998168945313 87.739997863769531 87.260002136230469 86.589996337890625 85.930000305175781 85.120002746582031 84.379997253417969 83.519996643066406 82.669998168945313 81.779998779296875 80.870002746582031 79.970001220703125 79.010002136230469 78.069999694824219 77.150001525878906 76.180000305175781 75.209999084472656 74.230003356933594 73.290000915527344 72.260002136230469 71.160003662109375 70.120002746582031 68.989997863769531 67.919998168945313 66.879997253417969 65.550003051757813 64.150001525878906 63.069999694824219 61.959999084472656 60.830001831054688 59.689998626708984 58.459999084472656 57.299999237060547 56.119998931884766 54.970001220703125 53.790000915527344 52.659999847412109 51.509998321533203 50.310001373291016 49.099998474121094 47.900001525878906 46.729999542236328 45.720001220703125 44.229999542236328 43.650001525878906 42.5 41.330001831054688 40.220001220703125 39.090000152587891 38.040000915527344 36.970001220703125 35.909999847412109 34.939998626708984 33.979999542236328 33.090000152587891 32.229999542236328 31.360000610351563 30.479999542236328 29.719999313354492 28.590000152587891 27.5 26.440000534057617 25.389999389648438 24.479999542236328 23.729999542236328 23.069999694824219 22.440000534057617 21.510000228881836 20.149999618530273 20.149999618530273 19.989999771118164 19.260000228881836 18.989999771118164 18.690000534057617 18.069999694824219 17.270000457763672 17.180000305175781 17.030000686645508 16 15.470000267028809 14.789999961853027 14.329999923706055 13.890000343322754 13.130000114440918 12.810000419616699 12.380000114440918 11.960000038146973 11.369999885559082 10.720000267028809 10.430000305175781 10.239999771118164 10.199999809265137 10.159999847412109 10.109999656677246 9.3000001907348633 8.119999885559082 8.0299997329711914 7.8899998664855957 7.8400001525878906 7.619999885559082 7.119999885559082 6.6500000953674316 6.3400001525878906 6.25 5.8000001907348633 5.3499999046325684 3.0199999809265137 2.9300000667572021 2.7799999713897705 2.9200000762939453 3.130000114440918 3.2000000476837158 3.1700000762939453 3.2400000095367432 3.440000057220459 3.559999942779541 3.7100000381469727 3.869999885559082 4 4.0399999618530273 4.1399998664855957 4.1999998092651367
90.389999389648438 90.610000610351563 91.010002136230469 91.209999084472656 91.839996337890625 92.25 92.650001525878906 93.019996643066406 93.319999694824219 93.580001831054688 93.80999755859375 93.949996948242187 94.050003051757813 94.180000305175781 94.260002136230469 94.110000610351563 94.160003662109375 94.040000915527344 94 94 93.980003356933594 93.970001220703125 93.839996337890625 93.699996948242188 93.620002746582031 93.449996948242188 93.239997863769531 92.970001220703125 92.769996643066406 92.739997863769531 92.589996337890625 92.480003356933594 92.25 91.879997253417969 91.449996948242188 91.05999755859375 90.580001831054687 90.169998168945313 89.69000244140625 89.160003662109375 88.730003356933594 87.69000244140625 87.099998474121094 86.620002746582031 85.930000305175781 85.139999389648438 84.319999694824219 83.510002136230469 82.69000244140625 81.910003662109375 81.019996643066406 80.110000610351563 79.220001220703125 78.300003051757812 77.360000610351563 76.449996948242188 75.519996643066406 74.569999694824219 73.580001831054687 72.55999755859375 71.550003051757812 70.510002136230469 69.470001220703125 68.569999694824219 67.470001220703125 65.910003662109375 64.760002136230469 63.619998931884766 62.479999542236328 61.279998779296875 60.060001373291016 58.900001525878906 57.740001678466797 56.619998931884766 55.439998626708984 54.310001373291016 53.080001831054687 51.880001068115234 50.700000762939453 49.509998321533203 48.319999694824219 47.099998474121094 46.150001525878906 44.229999542236328 43.889999389648438 42.590000152587891 41.610000610351563 40.580001831054687 39.400001525878906 38.349998474121094 37.299999237060547 36.229999542236328 35.25 34.240001678466797 33.349998474121094 32.409999847412109 31.469999313354492 30.809999465942383 30.100000381469727 29.049999237060547 28.090000152587891 26.969999313354492 25.729999542236328 24.950000762939453 23.969999313354492 23.120000839233398 22.430000305175781 21.590000152587891 20.170000076293945 20.190000534057617 19.969999313354492 19.430000305175781 19.299999237060547 18.420000076293945 18.399999618530273 18.020000457763672 17.270000457763672 17.030000686645508 16.719999313354492 15.260000228881836 14.880000114440918 14.729999542236328 13.789999961853027 12.920000076293945 12.840000152587891 12.789999961853027 11.609999656677246 10.569999694824219 11 10.729999542236328 10.189999580383301 10.289999961853027 10.220000267028809 10.060000419616699 8.8299999237060547 8.130000114440918 8 7.9099998474121094 7.8299999237060547 7.5399999618530273 6.880000114440918 6.4800000190734863 6.130000114440918 5.8000001907348633 5.570000171661377 5.3400001525878906 2.9700000286102295 2.8499999046325684 2.7599999904632568 3.0199999809265137 3.0999999046325684 3.309999942779541 3.2200000286102295 3.3599998950958252 3.5499999523162842 3.7599999904632568 3.9300000667572021 3.8599998950958252 4.0799999237060547 4.179999828338623 4.1700000762939453 4.190000057220459
90.319999694824219 90.610000610351563 91.010002136230469 91.239997863769531 91.80999755859375 92.300003051757813 92.620002746582031 92.94000244140625 93.180000305175781 93.519996643066406 93.80999755859375 93.900001525878906 93.970001220703125 94.199996948242188 94.180000305175781 94.019996643066406 93.989997863769531 93.889999389648438 93.889999389648438 93.839996337890625 93.790000915527344 93.739997863769531 93.639999389648438 93.480003356933594 93.25 93.19000244140625 93.160003662109375 93.080001831054688 92.879997253417969 92.650001525878906 92.410003662109375 92.160003662109375 91.900001525878906 91.680000305175781 91.400001525878906 91.080001831054687 90.660003662109375 90.150001525878906 89.669998168945313 89.139999389648438 88.680000305175781 87.709999084472656 87.029998779296875 86.449996948242188 85.819999694824219 85.040000915527344 84.279998779296875 83.550003051757812 82.709999084472656 81.919998168945313 81.050003051757813 80.220001220703125 79.349998474121094 78.470001220703125 77.540000915527344 76.650001525878906 75.680000305175781 74.760002136230469 73.800003051757812 72.930000305175781 71.919998168945313 70.910003662109375 70.080001831054687 68.860000610351563 67.639999389648438 66.470001220703125 65.239997863769531 64.040000915527344 62.860000610351563 61.689998626708984 60.529998779296875 59.380001068115234 58.25 57.099998474121094 55.919998168945313 54.75 53.580001831054687 52.330001831054688 51.099998474121094 49.930000305175781 48.700000762939453 47.5 46.310001373291016 45.139999389648438 43.759998321533203 42.830001831054687 41.720001220703125 40.740001678466797 39.720001220703125 38.669998168945313 37.590000152587891 36.529998779296875 35.5 34.560001373291016 33.619998931884766 32.599998474121094 31.590000152587891 30.840000152587891 30.270000457763672 29.639999389648438 28.579999923706055 27.200000762939453 25.879999160766602 24.569999694824219 23.379999160766602 22.760000228881836 22.469999313354492 22.299999237060547 21.569999694824219 21.290000915527344 20.270000457763672 19.620000839233398 19.590000152587891 19.350000381469727 18.409999847412109 18.450000762939453 17.790000915527344 16.969999313354492 16.670000076293945 16.280000686645508 13.810000419616699 12.869999885559082 12.909999847412109 13.010000228881836 12.970000267028809 12.850000381469727 11.939999580383301 10.869999885559082 10.979999542236328 10.840000152587891 10.409999847412109 10.159999847412109 10.149999618530273 9.9700002670288086 9.380000114440918 8.1599998474121094 8.0600004196166992 7.9699997901916504 7.7600002288818359 7.190000057220459 6.809999942779541 6.4499998092651367 6.0900001525878906 5.8000001907348633 5.5300002098083496 3.2999999523162842 2.9000000953674316 2.8299999237060547 2.940000057220459 3 3.119999885559082 3 3.2400000095367432 3.5099999904632568 3.5999999046325684 3.7400000095367432 3.8900001049041748 3.9500000476837158 4.0799999237060547 4.190000057220459 4.2199997901916504 4.1999998092651367
90.230003356933594 90.540000915527344 90.959999084472656 91.25 91.839996337890625 92.199996948242187 92.449996948242188 92.80999755859375 93.139999389648438 93.319999694824219 93.55999755859375 93.819999694824219 93.919998168945313 94.160003662109375 94.110000610351563 93.94000244140625 93.900001525878906 93.80999755859375 93.680000305175781 93.599998474121094 93.5 93.370002746582031 93.220001220703125 93.279998779296875 93.290000915527344 93.150001525878906 92.900001525878906 92.760002136230469 92.510002136230469 92.370002746582031 92.209999084472656 92.050003051757812 91.849998474121094 91.680000305175781 91.389999389648438 91.069999694824219 90.629997253417969 90.169998168945313 89.629997253417969 89.050003051757813 88.540000915527344 87.989997863769531 87.010002136230469 86.370002746582031 85.709999084472656 85.099998474121094 84.279998779296875 83.529998779296875 82.760002136230469 81.959999084472656 81.139999389648438 80.290000915527344 79.419998168945312 78.529998779296875 77.589996337890625 76.709999084472656 75.819999694824219 74.94000244140625 74.069999694824219 73.209999084472656 72.349998474121094 71.160003662109375 70.110000610351563 69.040000915527344 68.010002136230469 66.879997253417969 65.680000305175781 64.489997863769531 63.279998779296875 62.069999694824219 60.930000305175781 59.819999694824219 58.639999389648438 57.5 56.340000152587891 55.189998626708984 54.049999237060547 52.810001373291016 51.560001373291016 50.430000305175781 49.090000152587891 47.869998931884766 46.680000305175781 45.740001678466797 43.790000915527344 43.130001068115234 41.930000305175781 40.919998168945313 40 38.930000305175781 37.860000610351563 36.819999694824219 35.790000915527344 34.849998474121094 33.770000457763672 32.659999847412109 31.760000228881836 31.010000228881836 30.389999389648438 29.889999389648438 29 26.959999084472656 26.399999618530273 25.559999465942383 24.399999618530273 23.819999694824219 23.120000839233398 22.709999084472656 21.370000839233398 20.790000915527344 20.600000381469727 19.879999160766602 19.780000686645508 19.780000686645508 18.760000228881836 18.440000534057617 18.440000534057617 17.620000839233398 16.819999694824219 16.090000152587891 13.699999809265137 12.960000038146973 12.989999771118164 13 12.960000038146973 12.789999961853027 12.270000457763672 11.310000419616699 11.149999618530273 10.720000267028809 10.359999656677246 9.7799997329711914 9.6800003051757812 8.9200000762939453 8.2700004577636719 8.2799997329711914 8.25 8.0699996948242187 7.309999942779541 6.9699997901916504 6.6399998664855957 6.4200000762939453 5.9200000762939453 5.5500001907348633 5.1700000762939453 3.0399999618530273 2.880000114440918 2.9100000858306885 3 3 3.0399999618530273 2.9700000286102295 3.2699999809265137 3.3499999046325684 3.5 3.5399999618530273 3.7899999618530273 3.9300000667572021 4.130000114440918 4.2399997711181641 4.179999828338623 4.25
90.069999694824219 90.44000244140625 90.919998168945313 91.30999755859375 91.80999755859375 92.069999694824219 92.459999084472656 92.730003356933594 92.970001220703125 93.169998168945313 93.410003662109375 93.529998779296875 93.80999755859375 94.010002136230469 93.980003356933594 93.769996643066406 93.760002136230469 93.639999389648438 93.519996643066406 93.379997253417969 93.169998168945313 93.120002746582031 93.150001525878906 92.949996948242188 92.94000244140625 92.80999755859375 92.730003356933594 92.540000915527344 92.389999389648438 92.199996948242187 92.069999694824219 91.849998474121094 91.720001220703125 91.489997863769531 91.269996643066406 90.959999084472656 90.620002746582031 90.139999389648438 89.589996337890625 89.080001831054688 88.5 88 86.959999084472656 86.379997253417969 85.709999084472656 85.089996337890625 84.300003051757813 83.550003051757812 82.790000915527344 82.019996643066406 81.209999084472656 80.410003662109375 79.480003356933594 78.569999694824219 77.669998168945313 76.800003051757813 75.989997863769531 75.150001525878906 74.319999694824219 73.25 72.010002136230469 71.269996643066406 70.430000305175781 69.389999389648438 68.25 67.180000305175781 65.959999084472656 64.819999694824219 63.619998931884766 62.439998626708984 61.279998779296875 60.180000305175781 59.020000457763672 57.919998168945313 56.779998779296875 55.650001525878906 54.509998321533203 53.340000152587891 52.069999694824219 50.849998474121094 49.590000152587891 48.299999237060547 47.049999237060547 45.930000305175781 44.459999084472656 43.319999694824219 42.240001678466797 41.159999847412109 40.279998779296875 39.240001678466797 38.169998168945313 37.080001831054688 36.060001373291016 34.970001220703125 33.849998474121094 32.830001831054687 32.020000457763672 31.219999313354492 30.520000457763672 29.879999160766602 29.190000534057617 28.600000381469727 27.5 26.260000228881836 25.559999465942383 25.149999618530273 24.059999465942383 22.940000534057617 22.139999389648438 20.850000381469727 20.590000152587891 20.270000457763672 19.870000839233398 19.569999694824219 19.360000610351563 19.100000381469727 19.100000381469727 18.139999389648438 16.639999389648437 16.270000457763672 15.569999694824219 12.970000267028809 13.020000457763672 13 12.970000267028809 12.840000152587891 12.350000381469727 11.75 11.340000152587891 10.939999580383301 10.289999961853027 9.6999998092651367 9.4700002670288086 8.5399999618530273 8.3199996948242187 8.3199996948242187 8.25 7.5500001907348633 7.1500000953674316 6.9099998474121094 6.6100001335144043 6.0300002098083496 6.0999999046325684 5 3.5999999046325684 2.9500000476837158 2.9100000858306885 3.0899999141693115 3.0999999046325684 2.9300000667572021 2.940000057220459 3.059999942779541 3.1600000858306885 3.2300000190734863 3.4900000095367432 3.5199999809265137 3.7899999618530273 3.940000057220459 4.0100002288818359 4.0900001525878906 4.1599998474121094 4.2699999809265137
89.900001525878906 90.260002136230469 90.769996643066406 91.110000610351563 91.660003662109375 91.930000305175781 92.25 92.459999084472656 92.760002136230469 93.010002136230469 93.25 93.389999389648437 93.620002746582031 93.779998779296875 93.849998474121094 93.760002136230469 93.720001220703125 93.580001831054688 93.389999389648437 93.220001220703125 92.989997863769531 93.029998779296875 92.919998168945313 92.80999755859375 92.730003356933594 92.650001525878906 92.510002136230469 92.300003051757813 92.129997253417969 91.970001220703125 91.760002136230469 91.580001831054688 91.430000305175781 91.25 91.019996643066406 90.769996643066406 90.44000244140625 90.019996643066406 89.480003356933594 88.970001220703125 88.419998168945313 87.819999694824219 87.230003356933594 86.410003662109375 85.739997863769531 85.050003051757813 84.319999694824219 83.529998779296875 82.839996337890625 82.010002136230469 81.199996948242188 80.410003662109375 79.519996643066406 78.699996948242188 77.839996337890625 77.010002136230469 75.769996643066406 74.569999694824219 73.919998168945313 73.180000305175781 72.319999694824219 71.430000305175781 70.5 69.629997253417969 68.260002136230469 67.339996337890625 66.209999084472656 65.029998779296875 63.840000152587891 62.680000305175781 61.580001831054687 60.450000762939453 59.380001068115234 58.310001373291016 57.240001678466797 56.139999389648438 55.009998321533203 53.790000915527344 52.590000152587891 51.279998779296875 50.060001373291016 48.729999542236328 47.439998626708984 46.240001678466797 45.430000305175781 43.360000610351562 42.740001678466797 41.520000457763672 40.450000762939453 39.459999084472656 38.349998474121094 37.349998474121094 36.259998321533203 35.119998931884766 34.069999694824219 33.180000305175781 32.310001373291016 31.479999542236328 30.709999084472656 29.969999313354492 29.350000381469727 28.780000686645508 27.799999237060547 26.899999618530273 26.469999313354492 25.540000915527344 24.739999771118164 23.25 22.069999694824219 20.989999771118164 20.819999694824219 20.549999237060547 20.069999694824219 19.579999923706055 19.370000839233398 19.100000381469727 19.010000228881836 17.559999465942383 16.760000228881836 16.530000686645508 16.020000457763672 13.220000267028809 12.899999618530273 12.920000076293945 12.930000305175781 12.770000457763672 12.430000305175781 11.819999694824219 11.289999961853027 10.930000305175781 10.25 9.8100004196166992 9.6899995803833008 9.5299997329711914 8.4200000762939453 8.1599998474121094 7.7199997901916504 7.2899999618530273 7.0999999046325684 6.880000114440918 6.6700000762939453 5.7199997901916504 4.7300000190734863 3.4500000476837158 3 2.880000114440918 3.0399999618530273 3.0999999046325684 3.0099999904632568 2.7799999713897705 2.8399999141693115 3.0799999237060547 3.059999942779541 3.190000057220459 3.3599998950958252 3.6099998950958252 3.7999999523162842 3.9600000381469727 3.9700000286102295 4.2300000190734863 4.4200000762939453 4.9099998474121094
89.610000610351563 90.019996643066406 90.550003051757813 90.970001220703125 91.419998168945313 91.819999694824219 92.129997253417969 92.319999694824219 92.569999694824219 92.779998779296875 92.980003356933594 93.180000305175781 93.339996337890625 93.529998779296875 93.550003051757813 93.620002746582031 93.599998474121094 93.510002136230469 93.319999694824219 93.089996337890625 92.889999389648437 92.860000610351563 92.790000915527344 92.709999084472656 92.550003051757812 92.419998168945313 92.230003356933594 92.089996337890625 91.870002746582031 91.669998168945313 91.459999084472656 91.319999694824219 91.069999694824219 90.919998168945313 90.709999084472656 90.430000305175781 90.120002746582031 89.709999084472656 89.25 88.69000244140625 88.129997253417969 87.610000610351563 87.150001525878906 86.290000915527344 85.55999755859375 84.830001831054687 84.169998168945313 83.459999084472656 82.69000244140625 81.94000244140625 81.160003662109375 80.430000305175781 79.610000610351563 78.370002746582031 77.269996643066406 76.360000610351563 75.610000610351563 74.900001525878906 74.139999389648437 73.220001220703125 72.330001831054687 71.330001831054687 70.44000244140625 69.489997863769531 68.349998474121094 67.44000244140625 66.349998474121094 65.180000305175781 63.990001678466797 62.840000152587891 61.770000457763672 60.740001678466797 59.700000762939453 58.659999847412109 57.650001525878906 56.540000915527344 55.490001678466797 54.25 53.080001831054687 51.729999542236328 50.439998626708984 49.130001068115234 47.889999389648437 46.650001525878906 45.580001831054688 44.040000915527344 42.959999084472656 41.889999389648438 40.590000152587891 39.619998931884766 38.590000152587891 37.540000915527344 36.509998321533203 35.319999694824219 34.340000152587891 33.409999847412109 32.520000457763672 31.659999847412109 30.879999160766602 30.120000839233398 29.5 29.180000305175781 29.489999771118164 28.120000839233398 26.760000228881836 25.729999542236328 24.790000915527344 23.659999847412109 22.879999160766602 21.170000076293945 20.700000762939453 20.479999542236328 20.309999465942383 19.639999389648437 19.270000457763672 19.25 18.559999465942383 17.889999389648438 17.309999465942383 16.700000762939453 16.280000686645508 15.579999923706055 12.840000152587891 12.859999656677246 12.880000114440918 12.810000419616699 12.439999580383301 11.840000152587891 11.279999732971191 10.819999694824219 10.390000343322754 9.7899999618530273 9.5799999237060547 8.5299997329711914 8.5500001907348633 8.2700004577636719 7.7100000381469727 7.4000000953674316 7.440000057220459 6.8400001525878906 6.9200000762939453 5.3000001907348633 4.190000057220459 2.869999885559082 2.9300000667572021 2.9700000286102295 3.1500000953674316 2.940000057220459 2.6600000858306885 2.7200000286102295 2.8900001049041748 2.9800000190734863 3.0399999618530273 3.1700000762939453 3.3499999046325684 3.4800000190734863 3.5899999141693115 3.869999885559082 4.5199999809265137 5.3299999237060547 4.679999828338623 4.6999998092651367
89.30999755859375 89.699996948242188 90.239997863769531 90.69000244140625 91.260002136230469 91.620002746582031 91.879997253417969 92.120002746582031 92.410003662109375 92.529998779296875 92.739997863769531 92.860000610351563 93.089996337890625 93.330001831054688 93.360000610351563 93.410003662109375 93.349998474121094 93.370002746582031 93.319999694824219 93 92.75 92.69000244140625 92.699996948242188 92.540000915527344 92.389999389648438 92.239997863769531 92.019996643066406 91.860000610351563 91.580001831054688 91.330001831054688 91.150001525878906 90.879997253417969 90.709999084472656 90.480003356933594 90.19000244140625 89.930000305175781 89.589996337890625 89.25 88.800003051757813 88.279998779296875 87.760002136230469 87.19000244140625 86.629997253417969 86.010002136230469 85.30999755859375 84.599998474121094 83.949996948242188 83.319999694824219 82.669998168945313 81.870002746582031 80.790000915527344 79.739997863769531 78.879997253417969 78.099998474121094 77.269996643066406 76.44000244140625 75.580001831054688 74.709999084472656 73.879997253417969 73.05999755859375 72.199996948242188 71.279998779296875 70.319999694824219 69.44000244140625 68.650001525878906 67.269996643066406 66.300003051757813 65.230003356933594 64.099998474121094 62.970001220703125 61.990001678466797 60.990001678466797 60 59.009998321533203 58.009998321533203 56.970001220703125 55.849998474121094 54.669998168945313 53.439998626708984 52.200000762939453 50.930000305175781 49.590000152587891 48.310001373291016 47.020000457763672 45.939998626708984 45.069999694824219 42.919998168945313 42.220001220703125 40.889999389648438 39.790000915527344 38.779998779296875 37.759998321533203 36.650001525878906 35.610000610351563 34.599998474121094 33.650001525878906 32.759998321533203 31.889999389648438 31.129999160766602 30.459999084472656 30.079999923706055 29.850000381469727 29.909999847412109 29.860000610351563 28.049999237060547 25.899999618530273 25.010000228881836 23.860000610351563 23.180000305175781 22.370000839233398 20.930000305175781 20.590000152587891 20.329999923706055 19.840000152587891 19.350000381469727 19.170000076293945 17.739999771118164 17.600000381469727 17.340000152587891 16.530000686645508 16.159999847412109 14.920000076293945 13.069999694824219 12.800000190734863 12.810000419616699 12.609999656677246 12.479999542236328 11.829999923706055 11.270000457763672 10.779999732971191 10.470000267028809 9.4200000762939453 8.6899995803833008 8.6099996566772461 8.4399995803833008 8.1899995803833008 7.809999942779541 7.059999942779541 7.0900001525878906 6.8400001525878906 6.7199997901916504 4.9200000762939453 3.3299999237060547 2.9900000095367432 2.9900000095367432 3.0899999141693115 3.059999942779541 2.7799999713897705 2.619999885559082 2.880000114440918 2.940000057220459 3 3.119999885559082 3.2200000286102295 3.380000114440918 3.5 3.619999885559082 3.8900001049041748 3.809999942779541 4.4699997901916504 4.059999942779541 4.3000001907348633
88.959999084472656 89.349998474121094 89.849998474121094 90.44000244140625 90.879997253417969 91.230003356933594 91.669998168945313 91.849998474121094 92.099998474121094 92.230003356933594 92.419998168945313 92.639999389648438 92.900001525878906 93.040000915527344 92.989997863769531 93.089996337890625 93.160003662109375 93.129997253417969 93.120002746582031 92.860000610351563 92.569999694824219 92.55999755859375 92.639999389648438 92.419998168945313 92.180000305175781 92 91.790000915527344 91.510002136230469 91.239997863769531 91.019996643066406 90.75 90.519996643066406 90.300003051757812 89.989997863769531 89.669998168945313 89.379997253417969 88.980003356933594 88.589996337890625 88.239997863769531 87.760002136230469 87.220001220703125 86.720001220703125 86.089996337890625 85.580001831054687 85.019996643066406 84.470001220703125 83.629997253417969 82.769996643066406 81.930000305175781 81.150001525878906 80.410003662109375 79.650001525878906 78.889999389648438 78.029998779296875 77.110000610351563 76.19000244140625 75.290000915527344 74.400001525878906 73.589996337890625 72.80999755859375 71.910003662109375 71.029998779296875 70.089996337890625 69.150001525878906 68.220001220703125 67.05999755859375 66.169998168945313 65.220001220703125 64.080001831054687 63.110000610351563 62.119998931884766 61.159999847412109 60.229999542236328 59.310001373291016 58.310001373291016 57.25 56.169998168945312 55.060001373291016 53.860000610351562 52.610000610351563 51.340000152587891 50.069999694824219 48.799999237060547 47.549999237060547 46.330001831054688 45.259998321533203 43.810001373291016 42.419998168945313 41.299999237060547 40.040000915527344 38.880001068115234 38 36.880001068115234 35.909999847412109 34.889999389648438 33.919998168945313 33.040000915527344 32.180000305175781 31.489999771118164 30.790000915527344 30.319999694824219 30.270000457763672 30.200000762939453 30.100000381469727 29.690000534057617 27.879999160766602 25.260000228881836 24.440000534057617 23.530000686645508 22.600000381469727 22.129999160766602 20.680000305175781 20.610000610351562 19.899999618530273 19.520000457763672 18.829999923706055 17.979999542236328 17.610000610351563 17.600000381469727 16.909999847412109 16.459999084472656 16.049999237060547 14.720000267028809 14.939999580383301 13.510000228881836 12.560000419616699 12.350000381469727 11.880000114440918 11.300000190734863 10.770000457763672 10.289999961853027 9.380000114440918 8.6899995803833008 8.5900001525878906 8.5299997329711914 8.1999998092651367 7.6700000762939453 7.130000114440918 6.9800000190734863 6.7899999618530273 5.9600000381469727 3.9900000095367432 2.7699999809265137 2.9900000095367432 3 3.1099998950958252 1.9099999666213989 2.3499999046325684 2.5799999237060547 2.9200000762939453 3.0399999618530273 3.059999942779541 3.0799999237060547 3.190000057220459 3.3199999332427979 3.380000114440918 3.4700000286102295 4.0100002288818359 3.869999885559082 3.9100000858306885 3.9500000476837158 3.9500000476837158
88.599998474121094 89 89.410003662109375 90.110000610351563 90.519996643066406 90.949996948242188 91.370002746582031 91.589996337890625 91.800003051757813 91.959999084472656 92.150001525878906 92.349998474121094 92.589996337890625 92.730003356933594 92.739997863769531 92.800003051757813 92.819999694824219 92.80999755859375 92.849998474121094 92.739997863769531 92.339996337890625 92.379997253417969 92.44000244140625 92.199996948242187 92.029998779296875 91.800003051757813 91.489997863769531 91.25 90.970001220703125 90.680000305175781 90.389999389648438 90.129997253417969 89.80999755859375 89.519996643066406 89.230003356933594 88.779998779296875 88.44000244140625 88.019996643066406 87.660003662109375 87.180000305175781 86.629997253417969 86.069999694824219 85.480003356933594 84.959999084472656 84.220001220703125 83.290000915527344 82.660003662109375 82.269996643066406 81.639999389648438 80.980003356933594 80.209999084472656 79.370002746582031 78.540000915527344 77.669998168945313 76.819999694824219 75.900001525878906 75.019996643066406 74.150001525878906 73.300003051757812 72.379997253417969 71.519996643066406 70.650001525878906 69.739997863769531 68.870002746582031 67.980003356933594 66.949996948242188 65.900001525878906 65.040000915527344 64.080001831054687 63.099998474121094 62.209999084472656 61.310001373291016 60.349998474121094 59.439998626708984 58.450000762939453 57.470001220703125 56.430000305175781 55.380001068115234 54.220001220703125 53.020000457763672 51.779998779296875 50.580001831054688 49.330001831054687 48.150001525878906 46.919998168945313 45.700000762939453 44.860000610351563 42.400001525878906 41.950000762939453 40.720001220703125 39.740001678466797 38.25 37.259998321533203 36.270000457763672 35.240001678466797 34.180000305175781 33.349998474121094 32.669998168945313 31.75 30.659999847412109 30.5 30.440000534057617 30.389999389648438 30.280000686645508 30.170000076293945 28.959999084472656 26.780000686645508 24.870000839233398 24.149999618530273 23.149999618530273 22.430000305175781 21.659999847412109 20.899999618530273 20.450000762939453 19.159999847412109 18.659999847412109 17.969999313354492 17.600000381469727 17.5 17.139999389648438 16.549999237060547 16.239999771118164 15.520000457763672 14.670000076293945 14.380000114440918 13.300000190734863 12.170000076293945 11.880000114440918 11.310000419616699 10.710000038146973 10.329999923706055 9.8599996566772461 8.7299995422363281 8.5900001525878906 8.5200004577636719 8.2799997329711914 7.6500000953674316 7.130000114440918 6.809999942779541 6.690000057220459 4.5300002098083496 3.119999885559082 2.8399999141693115 3.0799999237060547 3.1800000667572021 2.0399999618530273 1.7350000143051147 1.5900000333786011 1.7200000286102295 2.5499999523162842 2.9100000858306885 3.059999942779541 3.059999942779541 3.0999999046325684 3.2599999904632568 3.3199999332427979 3.440000057220459 3.619999885559082 3.7899999618530273 3.7400000095367432 3.7699999809265137 3.7999999523162842
88.199996948242188 88.55999755859375 88.94000244140625 89.519996643066406 90.040000915527344 90.550003051757813 90.959999084472656 91.25 91.510002136230469 91.650001525878906 91.80999755859375 92.010002136230469 92.269996643066406 92.330001831054687 92.349998474121094 92.449996948242188 92.449996948242188 92.510002136230469 92.540000915527344 92.410003662109375 92.120002746582031 92 92.199996948242187 92.029998779296875 91.839996337890625 91.55999755859375 91.30999755859375 90.989997863769531 90.680000305175781 90.349998474121094 90.040000915527344 89.730003356933594 89.410003662109375 89.050003051757813 88.660003662109375 88.290000915527344 87.870002746582031 87.459999084472656 87.029998779296875 86.540000915527344 86.040000915527344 85.480003356933594 84.849998474121094 84.260002136230469 83.55999755859375 82.870002746582031 82.389999389648438 81.80999755859375 81.139999389648438 80.419998168945313 79.680000305175781 78.919998168945313 78.089996337890625 77.260002136230469 76.44000244140625 75.55999755859375 74.660003662109375 73.830001831054688 72.94000244140625 72.05999755859375 71.180000305175781 70.260002136230469 69.360000610351563 68.510002136230469 67.629997253417969 66.709999084472656 65.55999755859375 64.830001831054688 63.970001220703125 63.049999237060547 62.169998168945313 61.240001678466797 60.310001373291016 59.430000305175781 58.529998779296875 57.599998474121094 56.540000915527344 55.560001373291016 54.439998626708984 53.310001373291016 52.209999084472656 51.069999694824219 49.889999389648438 48.759998321533203 47.509998321533203 46.229999542236328 45.150001525878906 44.389999389648438 42.049999237060547 41.439998626708984 40.119998931884766 38.689998626708984 37.669998168945313 36.580001831054687 35.490001678466797 34.590000152587891 33.860000610351563 32.049999237060547 30.690000534057617 30.719999313354492 30.709999084472656 30.709999084472656 30.569999694824219 30.440000534057617 30.25 29.479999542236328 28.280000686645508 25.440000534057617 24.569999694824219 23.569999694824219 22.780000686645508 22.139999389648438 21.329999923706055 20.75 19.889999389648437 18.389999389648438 17.739999771118164 17.639999389648437 17.520000457763672 17.100000381469727 16.290000915527344 16.100000381469727 15.439999580383301 14.810000419616699 14.470000267028809 14.079999923706055 13.039999961853027 11.479999542236328 11.130000114440918 10.659999847412109 10.369999885559082 10 8.7100000381469727 8.6700000762939453 8.3500003814697266 8 7.440000057220459 6.9200000762939453 6.690000057220459 5.9800000190734863 4.0900001525878906 2.7200000286102295 3.0199999809265137 3.059999942779541 3.0799999237060547 1.8229999542236328 1.5260000228881836 1.3739999532699585 1.2239999771118164 1.309999942779541 2.0199999809265137 2.6800000667572021 3.0099999904632568 3.0499999523162842 3.0799999237060547 3.1600000858306885 3.3399999141693115 3.440000057220459 3.9600000381469727 4.130000114440918 3.8199999332427979 4.0900001525878906
87.80999755859375 88.110000610351563 88.480003356933594 89.099998474121094 89.610000610351563 90.139999389648438 90.489997863769531 90.800003051757812 91.139999389648437 91.300003051757813 91.510002136230469 91.669998168945313 91.870002746582031 92.040000915527344 92.029998779296875 92.050003051757812 92.120002746582031 92.150001525878906 92.120002746582031 92.050003051757812 91.849998474121094 91.699996948242187 91.889999389648438 91.760002136230469 91.540000915527344 91.300003051757813 90.989997863769531 90.69000244140625 90.339996337890625 90.010002136230469 89.639999389648438 89.279998779296875 88.959999084472656 88.569999694824219 88.169998168945313 87.769996643066406 87.349998474121094 86.949996948242188 86.44000244140625 85.959999084472656 85.430000305175781 84.930000305175781 84.300003051757813 83.629997253417969 83.040000915527344 82.330001831054688 81.760002136230469 81.150001525878906 80.519996643066406 79.849998474121094 79.169998168945313 78.400001525878906 77.620002746582031 76.790000915527344 75.989997863769531 75.099998474121094 74.239997863769531 73.370002746582031 72.5 71.629997253417969 70.769996643066406 69.94000244140625 69.099998474121094 68.110000610351562 67.290000915527344 66.360000610351562 65.339996337890625 64.5 63.689998626708984 62.819999694824219 61.970001220703125 61.040000915527344 60.159999847412109 59.270000457763672 58.430000305175781 57.490001678466797 56.509998321533203 55.540000915527344 54.529998779296875 53.549999237060547 52.569999694824219 51.470001220703125 50.340000152587891 49.200000762939453 47.939998626708984 46.720001220703125 45.610000610351562 44.630001068115234 42.349998474121094 41.669998168945313 40.659999847412109 38.880001068115234 37.979999542236328 36.919998168945313 35.959999084472656 35.159999847412109 34.389999389648438 31.700000762939453 30.780000686645508 30.809999465942383 30.780000686645508 30.700000762939453 30.600000381469727 30.430000305175781 30.209999084472656 29.799999237060547 28.229999542236328 25.969999313354492 25.020000457763672 24.020000457763672 22.870000839233398 22.299999237060547 21.569999694824219 20.719999313354492 20.309999465942383 19.190000534057617 18.680000305175781 18.040000915527344 17.559999465942383 17.069999694824219 15.979999542236328 15.859999656677246 15.460000038146973 14.850000381469727 14.460000038146973 13.960000038146973 13.579999923706055 12.939999580383301 10.869999885559082 10.479999542236328 10.260000228881836 10.039999961853027 8.7399997711181641 7.7199997901916504 6.7699999809265137 6.3899998664855957 6.6100001335144043 6.4600000381469727 5.9899997711181641 5.2600002288818359 4.130000114440918 2.9100000858306885 3.0999999046325684 3.1800000667572021 2.7000000476837158 1.7029999494552612 1.5390000343322754 1.3760000467300415 1.2580000162124634 1.1150000095367432 1.5700000524520874 1.4299999475479126 2.3399999141693115 2.8299999237060547 3.0299999713897705 3.059999942779541 3.2300000190734863 3.3399999141693115 3.369999885559082 3.4000000953674316 3.5199999809265137 3.9100000858306885
87.370002746582031 87.639999389648438 87.959999084472656 88.459999084472656 89.129997253417969 89.69000244140625 90.069999694824219 90.389999389648438 90.69000244140625 90.949996948242188 91.150001525878906 91.339996337890625 91.610000610351563 91.660003662109375 91.580001831054688 91.669998168945313 91.720001220703125 91.699996948242187 91.699996948242187 91.639999389648437 91.44000244140625 91.370002746582031 91.480003356933594 91.400001525878906 91.209999084472656 91.010002136230469 90.730003356933594 90.370002746582031 89.970001220703125 89.599998474121094 89.260002136230469 88.889999389648437 88.510002136230469 88.139999389648438 87.720001220703125 87.260002136230469 86.80999755859375 86.379997253417969 85.930000305175781 85.360000610351563 84.870002746582031 84.300003051757813 83.669998168945313 82.989997863769531 82.5 81.69000244140625 81.040000915527344 80.519996643066406 79.870002746582031 79.199996948242187 78.519996643066406 77.80999755859375 77.029998779296875 76.209999084472656 75.449996948242188 74.589996337890625 73.730003356933594 72.879997253417969 72.050003051757812 71.220001220703125 70.360000610351562 69.580001831054687 68.730003356933594 67.830001831054687 66.910003662109375 65.970001220703125 65.239997863769531 64.120002746582031 63.419998168945313 62.549999237060547 61.680000305175781 60.799999237060547 59.950000762939453 59.029998779296875 58.180000305175781 57.299999237060547 56.389999389648438 55.459999084472656 54.529998779296875 53.619998931884766 52.610000610351563 51.639999389648438 50.630001068115234 49.5 48.369998931884766 47.209999084472656 46.040000915527344 45 44.209999084472656 41.659999847412109 41.130001068115234 39.319999694824219 38.290000915527344 37.360000610351563 36.529998779296875 35.479999542236328 34.720001220703125 31.489999771118164 30.920000076293945 30.850000381469727 30.760000228881836 30.670000076293945 30.639999389648438 30.25 30.209999084472656 29.889999389648438 28.209999084472656 27.120000839233398 25.420000076293945 24.159999847412109 23.159999847412109 22.569999694824219 21.840000152587891 20.979999542236328 20.280000686645508 19.559999465942383 19.129999160766602 18.739999771118164 17.520000457763672 16.729999542236328 15.909999847412109 15.869999885559082 15.659999847412109 14.949999809265137 14.260000228881836 13.800000190734863 13.699999809265137 13.529999732971191 11.829999923706055 10.239999771118164 10.020000457763672 9.5500001907348633 8.8199996948242187 7.6599998474121094 6.7199997901916504 6.5500001907348633 6.2600002288818359 6.1700000762939453 5.7899999618530273 5.7899999618530273 2.9100000858306885 2.9900000095367432 3 3.2100000381469727 1.440000057220459 1.4930000305175781 1.5410000085830688 1.3769999742507935 1.3619999885559082 1.4199999570846558 1.4099999666213989 1.5499999523162842 1.5700000524520874 1.75 2.6800000667572021 3.0799999237060547 3.1500000953674316 3.2699999809265137 3.2999999523162842 3.2400000095367432 3.5399999618530273 3.7100000381469727
86.94000244140625 87.260002136230469 87.550003051757813 87.919998168945313 88.540000915527344 89.080001831054688 89.519996643066406 89.900001525878906 90.319999694824219 90.540000915527344 90.720001220703125 90.910003662109375 91.169998168945313 91.25 91.269996643066406 91.260002136230469 91.300003051757813 91.339996337890625 91.279998779296875 91.150001525878906 91.010002136230469 90.970001220703125 91.080001831054687 91.019996643066406 90.849998474121094 90.699996948242188 90.449996948242188 90.069999694824219 89.680000305175781 89.319999694824219 88.889999389648437 88.459999084472656 88.120002746582031 87.699996948242187 87.220001220703125 86.790000915527344 86.360000610351563 85.910003662109375 85.410003662109375 84.839996337890625 84.290000915527344 83.739997863769531 83.110000610351563 82.449996948242188 82.029998779296875 81.129997253417969 80.449996948242188 79.879997253417969 79.269996643066406 78.589996337890625 77.870002746582031 77.160003662109375 76.430000305175781 75.69000244140625 74.900001525878906 74.099998474121094 73.25 72.410003662109375 71.589996337890625 70.779998779296875 70 69.19000244140625 68.319999694824219 67.449996948242188 66.529998779296875 65.610000610351563 64.569999694824219 63.619998931884766 62.880001068115234 62.119998931884766 61.299999237060547 60.479999542236328 59.639999389648438 58.740001678466797 57.880001068115234 57.020000457763672 56.119998931884766 55.240001678466797 54.380001068115234 53.549999237060547 52.590000152587891 51.729999542236328 50.810001373291016 49.790000915527344 48.700000762939453 47.590000152587891 46.470001220703125 45.290000915527344 44.279998779296875 42.560001373291016 41.270000457763672 40.020000457763672 38.659999847412109 37.959999084472656 36.880001068115234 35.799999237060547 35.229999542236328 33.060001373291016 30.930000305175781 30.850000381469727 30.75 30.659999847412109 30.690000534057617 30.370000839233398 30.079999923706055 29.579999923706055 28.610000610351562 27.670000076293945 25.870000839233398 24.579999923706055 23.610000610351563 23.100000381469727 21.5 21.040000915527344 20.620000839233398 19.709999084472656 18.979999542236328 18.600000381469727 17.899999618530273 16.479999542236328 15.880000114440918 15.859999656677246 15.789999961853027 15.239999771118164 14.239999771118164 13.760000228881836 13.720000267028809 12.979999542236328 12.520000457763672 11.75 9.7399997711181641 9.2399997711181641 8.8500003814697266 8.3500003814697266 7.0100002288818359 6.4899997711181641 6.2199997901916504 6.320000171661377 5.3499999046325684 4.690000057220459 2.9600000381469727 3.0099999904632568 3.0999999046325684 2.190000057220459 1.3500000238418579 1.1959999799728394 1.3769999742507935 1.3789999485015869 1.5700000524520874 1.5700000524520874 1.4800000190734863 1.5499999523162842 1.5700000524520874 1.559999942779541 1.6100000143051147 2.559999942779541 3.0999999046325684 3.2999999523162842 3.1700000762939453 3.2999999523162842 3.380000114440918 3.4100000858306885
86.610000610351563 86.900001525878906 87.120002746582031 87.430000305175781 88 88.569999694824219 88.970001220703125 89.400001525878906 89.760002136230469 90.089996337890625 90.300003051757812 90.610000610351563 90.849998474121094 90.819999694824219 90.889999389648438 90.830001831054688 90.910003662109375 90.900001525878906 90.790000915527344 90.680000305175781 90.529998779296875 90.44000244140625 90.639999389648437 90.540000915527344 90.419998168945313 90.279998779296875 90.069999694824219 89.709999084472656 89.379997253417969 88.949996948242188 88.569999694824219 88.129997253417969 87.709999084472656 87.290000915527344 86.839996337890625 86.360000610351563 85.830001831054688 85.370002746582031 84.849998474121094 84.260002136230469 83.69000244140625 83.099998474121094 82.519996643066406 81.910003662109375 81.379997253417969 80.589996337890625 79.860000610351563 79.330001831054687 78.709999084472656 78.010002136230469 77.300003051757812 76.550003051757813 75.849998474121094 75.069999694824219 74.370002746582031 73.569999694824219 72.779998779296875 71.949996948242188 71.099998474121094 70.349998474121094 69.529998779296875 68.730003356933594 67.870002746582031 66.989997863769531 66.110000610351563 65.220001220703125 64.150001525878906 63.020000457763672 62.459999084472656 61.680000305175781 60.840000152587891 60.049999237060547 59.240001678466797 58.369998931884766 57.520000457763672 56.669998168945313 55.810001373291016 54.959999084472656 54.119998931884766 53.299999237060547 52.520000457763672 51.689998626708984 50.810001373291016 49.900001525878906 48.930000305175781 47.880001068115234 46.689998626708984 45.520000457763672 44.369998931884766 43.540000915527344 41.029998779296875 40.389999389648438 39.319999694824219 38.180000305175781 37.270000457763672 36.220001220703125 35.430000305175781 34.950000762939453 30.930000305175781 30.870000839233398 30.829999923706055 30.690000534057617 30.540000915527344 30.290000915527344 30.049999237060547 29.629999160766602 28.690000534057617 27.610000610351563 26.489999771118164 24.920000076293945 24.190000534057617 23.469999313354492 22.040000915527344 21.170000076293945 20.540000915527344 19.899999618530273 19.129999160766602 18.489999771118164 17.930000305175781 17.299999237060547 16.069999694824219 15.869999885559082 15.439999580383301 15.159999847412109 13.850000381469727 13.800000190734863 13.670000076293945 12.579999923706055 12.489999771118164 11.859999656677246 10.189999580383301 9.1099996566772461 8.8000001907348633 8.369999885559082 7.369999885559082 6.5399999618530273 6.25 6.3299999237060547 5.2399997711181641 2.8299999237060547 2.940000057220459 2.9700000286102295 2.880000114440918 1.6699999570846558 1.4600000381469727 1.559999942779541 1.5199999809265137 1.5800000429153442 1.5800000429153442 1.5700000524520874 1.5900000333786011 1.559999942779541 1.5800000429153442 1.4600000381469727 1.3899999856948853 1.1599999666213989 2.4800000190734863 3.119999885559082 3.0999999046325684 3.1600000858306885 3.2100000381469727 3.2799999713897705
86.25 86.529998779296875 86.75 86.970001220703125 87.410003662109375 88.040000915527344 88.419998168945313 88.790000915527344 89.129997253417969 89.489997863769531 89.830001831054688 90.180000305175781 90.449996948242188 90.489997863769531 90.5 90.540000915527344 90.459999084472656 90.44000244140625 90.339996337890625 90.239997863769531 89.980003356933594 89.930000305175781 90.129997253417969 90 89.959999084472656 89.779998779296875 89.69000244140625 89.400001525878906 89.029998779296875 88.620002746582031 88.209999084472656 87.739997863769531 87.279998779296875 86.849998474121094 86.389999389648438 85.889999389648438 85.339996337890625 84.830001831054687 84.300003051757813 83.699996948242187 83.110000610351563 82.540000915527344 81.959999084472656 81.379997253417969 80.970001220703125 80.19000244140625 79.330001831054687 78.739997863769531 78.150001525878906 77.470001220703125 76.709999084472656 75.989997863769531 75.30999755859375 74.569999694824219 73.800003051757812 73.019996643066406 72.220001220703125 71.430000305175781 70.629997253417969 69.830001831054688 69.050003051757813 68.209999084472656 67.349998474121094 66.489997863769531 65.589996337890625 64.69000244140625 63.709999084472656 62.659999847412109 61.880001068115234 61.169998168945313 60.319999694824219 59.529998779296875 58.729999542236328 57.869998931884766 57.060001373291016 56.240001678466797 55.389999389648437 54.560001373291016 53.770000457763672 53.009998321533203 52.220001220703125 51.459999084472656 50.650001525878906 49.790000915527344 48.810001373291016 47.779998779296875 46.700000762939453 45.630001068115234 44.520000457763672 43.5 41.909999847412109 40.490001678466797 40.659999847412109 38.990001678466797 37.630001068115234 36.549999237060547 35.590000152587891 35.040000915527344 31.159999847412109 31.020000457763672 30.899999618530273 30.760000228881836 30.600000381469727 30.299999237060547 29.819999694824219 29.190000534057617 28.370000839233398 27.489999771118164 26.629999160766602 25.459999084472656 24.600000381469727 23.229999542236328 22.290000915527344 21.639999389648438 20.520000457763672 19.799999237060547 19.149999618530273 18.450000762939453 17.659999847412109 17.139999389648438 16.649999618530273 15.640000343322754 15.310000419616699 14.569999694824219 13.739999771118164 13.649999618530273 12.699999809265137 12.529999732971191 12.470000267028809 11.170000076293945 10.680000305175781 9.9799995422363281 8.6999998092651367 8.2799997329711914 7.429999828338623 6.570000171661377 5.7300000190734863 5.6500000953674316 3.8299999237060547 2.8900001049041748 2.9200000762939453 2.9600000381469727 2.5399999618530273 1.2400000095367432 1.690000057220459 1.5700000524520874 1.5700000524520874 1.5900000333786011 1.559999942779541 1.5700000524520874 1.5499999523162842 1.5700000524520874 1.5800000429153442 1.4700000286102295 1.3400000333786011 1.5099999904632568 1.3200000524520874 2.5799999237060547 3.0899999141693115 3.1600000858306885 3.0799999237060547 3.0899999141693115
85.959999084472656 86.150001525878906 86.389999389648438 86.569999694824219 86.94000244140625 87.629997253417969 87.900001525878906 88.089996337890625 88.459999084472656 88.819999694824219 89.169998168945313 89.569999694824219 89.94000244140625 89.94000244140625 90.050003051757813 90.029998779296875 90.040000915527344 90.010002136230469 89.900001525878906 89.720001220703125 89.459999084472656 89.349998474121094 89.589996337890625 89.480003356933594 89.389999389648437 89.379997253417969 89.19000244140625 88.959999084472656 88.660003662109375 88.269996643066406 87.889999389648438 87.459999084472656 86.980003356933594 86.459999084472656 85.959999084472656 85.410003662109375 84.930000305175781 84.30999755859375 83.739997863769531 83.129997253417969 82.569999694824219 81.980003356933594 81.44000244140625 80.900001525878906 80.419998168945313 79.720001220703125 78.80999755859375 78.139999389648437 77.580001831054687 76.910003662109375 76.209999084472656 75.489997863769531 74.769996643066406 74.050003051757813 73.300003051757812 72.519996643066406 71.720001220703125 70.910003662109375 70.099998474121094 69.260002136230469 68.470001220703125 67.639999389648438 66.75 65.860000610351562 64.980003356933594 64.040000915527344 63.080001831054688 62.119998931884766 61.310001373291016 60.580001831054687 59.770000457763672 58.919998168945313 58.119998931884766 57.270000457763672 56.479999542236328 55.720001220703125 54.959999084472656 54.150001525878906 53.369998931884766 52.569999694824219 51.880001068115234 51.110000610351562 50.319999694824219 49.430000305175781 48.479999542236328 47.549999237060547 46.599998474121094 45.569999694824219 44.520000457763672 43.439998626708984 42.580001831054687 40.279998779296875 40.009998321533203 39.240001678466797 37.970001220703125 36.970001220703125 35.830001831054688 35.119998931884766 33.25 31.309999465942383 31.200000762939453 31.030000686645508 30.700000762939453 30.299999237060547 29.989999771118164 28.879999160766602 28.180000305175781 27.569999694824219 26.629999160766602 25.629999160766602 24.340000152587891 23.260000228881836 22.450000762939453 21.520000457763672 20.870000839233398 19.610000610351562 19.020000457763672 18.520000457763672 17.930000305175781 16.829999923706055 16.309999465942383 15.289999961853027 14.960000038146973 13.5 13.75 13.579999923706055 12.460000038146973 12.579999923706055 11.989999771118164 10.880000114440918 10.529999732971191 10.300000190734863 8.5500001907348633 8.1499996185302734 7.4099998474121094 6.7100000381469727 5.8600001335144043 4.9899997711181641 2.8499999046325684 2.8900001049041748 2.940000057220459 2.8900001049041748 1.4700000286102295 1.309999942779541 1.0900000333786011 1.5399999618530273 1.5399999618530273 1.5700000524520874 1.5499999523162842 1.559999942779541 1.3300000429153442 1.6000000238418579 1.5499999523162842 1.4900000095367432 1.5 1.5800000429153442 1.559999942779541 1.6100000143051147 2.2200000286102295 2.7999999523162842 2.9900000095367432 3.119999885559082
85.489997863769531 85.739997863769531 86 86.199996948242188 86.449996948242188 86.980003356933594 87.199996948242188 87.419998168945313 87.819999694824219 88.160003662109375 88.55999755859375 88.959999084472656 89.349998474121094 89.410003662109375 89.5 89.580001831054687 89.589996337890625 89.580001831054687 89.430000305175781 89.129997253417969 88.94000244140625 88.889999389648437 89.050003051757813 88.910003662109375 88.830001831054687 88.75 88.620002746582031 88.459999084472656 88.209999084472656 87.900001525878906 87.459999084472656 87.099998474121094 86.610000610351563 86.080001831054687 85.550003051757813 84.959999084472656 84.370002746582031 83.779998779296875 83.230003356933594 82.589996337890625 82.05999755859375 81.519996643066406 80.94000244140625 80.410003662109375 79.319999694824219 78.660003662109375 78.260002136230469 77.529998779296875 76.980003356933594 76.330001831054687 75.629997253417969 74.900001525878906 74.209999084472656 73.44000244140625 72.760002136230469 71.949996948242188 71.160003662109375 70.379997253417969 69.540000915527344 68.69000244140625 67.839996337890625 66.930000305175781 66.010002136230469 65.010002136230469 64.029998779296875 63.099998474121094 62.299999237060547 61.459999084472656 60.520000457763672 59.909999847412109 59.169998168945313 58.270000457763672 57.490001678466797 56.680000305175781 55.959999084472656 55.159999847412109 54.360000610351563 53.610000610351563 52.869998931884766 52.110000610351563 51.369998931884766 50.569999694824219 49.759998321533203 49.009998321533203 48.139999389648438 47.25 46.380001068115234 45.380001068115234 44.419998168945313 43.330001831054688 42.419998168945313 41.150001525878906 39.590000152587891 39.5 38.180000305175781 37.080001831054688 35.990001678466797 35.080001831054688 34.419998168945313 32.200000762939453 31.659999847412109 31.280000686645508 30.959999084472656 30.379999160766602 30.270000457763672 29.450000762939453 28.090000152587891 27.5 26.600000381469727 25.399999618530273 24.280000686645508 23.239999771118164 22.530000686645508 21.5 20.729999542236328 19.950000762939453 19 18.239999771118164 17.770000457763672 17.059999465942383 16.030000686645508 14.840000152587891 13.920000076293945 13.729999542236328 13.770000457763672 13.680000305175781 12.460000038146973 12.390000343322754 11.159999847412109 9.75 9.9499998092651367 9.9200000762939453 8.3999996185302734 7.630000114440918 7.070000171661377 6.2199997901916504 5.6999998092651367 2.809999942779541 2.8900001049041748 2.880000114440918 2.9200000762939453 2.7300000190734863 1.5399999618530273 1.5 1.3500000238418579 1.5199999809265137 1.5099999904632568 1.5700000524520874 1.3799999952316284 1.4099999666213989 1.5800000429153442 1.5800000429153442 1.5399999618530273 1.559999942779541 1.5900000333786011 1.5 1.2300000190734863 1.1499999761581421 1.3999999761581421 1.4700000286102295 2.6099998950958252 2.9900000095367432
84.989997863769531 85.30999755859375 85.660003662109375 85.900001525878906 86.139999389648438 86.239997863769531 86.44000244140625 86.959999084472656 87.360000610351563 87.550003051757813 87.870002746582031 88.260002136230469 88.580001831054688 88.709999084472656 88.800003051757813 88.930000305175781 88.970001220703125 89.040000915527344 88.94000244140625 88.610000610351563 88.489997863769531 88.459999084472656 88.480003356933594 88.400001525878906 88.25 88.160003662109375 88 87.870002746582031 87.720001220703125 87.44000244140625 87.069999694824219 86.680000305175781 86.169998168945313 85.739997863769531 85.180000305175781 84.519996643066406 83.959999084472656 83.269996643066406 82.699996948242188 82.180000305175781 81.580001831054687 81 80.209999084472656 79.300003051757813 78.569999694824219 78.080001831054687 77.650001525878906 76.949996948242187 76.360000610351563 75.680000305175781 75.010002136230469 74.300003051757813 73.589996337890625 72.900001525878906 72.169998168945313 71.389999389648437 70.620002746582031 69.80999755859375 68.919998168945313 68.05999755859375 67.180000305175781 66.180000305175781 65.110000610351563 63.990001678466797 62.950000762939453 62.029998779296875 61.270000457763672 60.650001525878906 59.909999847412109 59.290000915527344 58.540000915527344 57.659999847412109 56.860000610351562 56.069999694824219 55.270000457763672 54.5 53.700000762939453 52.939998626708984 52.150001525878906 51.409999847412109 50.740001678466797 50 49.229999542236328 48.450000762939453 47.700000762939453 46.880001068115234 46.029998779296875 45.150001525878906 44.229999542236328 43.209999084472656 42.229999542236328 41.5 39.209999084472656 38.970001220703125 38.380001068115234 37.150001525878906 36.099998474121094 35.099998474121094 34.369998931884766 33.040000915527344 32.130001068115234 31.409999847412109 30.360000610351563 30.319999694824219 30.219999313354492 29.989999771118164 28.639999389648437 27.479999542236328 26.5 25.719999313354492 24.5 23.290000915527344 22.379999160766602 21.760000228881836 20.559999465942383 19.850000381469727 19.270000457763672 18.200000762939453 17.549999237060547 16.719999313354492 15.989999771118164 15.020000457763672 13.890000343322754 13.789999961853027 13.680000305175781 13.609999656677246 12.329999923706055 11.739999771118164 9.6000003814697266 8.9799995422363281 8.8000001907348633 8.3999996185302734 8.3299999237060547 7.7600002288818359 6.8600001335144043 6.0199999809265137 3.7300000190734863 2.869999885559082 2.8199999332427979 2.9500000476837158 2.9300000667572021 1.7400000095367432 1.559999942779541 1.4299999475479126 1.5099999904632568 1.5800000429153442 1.5499999523162842 1.5199999809265137 1.3799999952316284 1.6000000238418579 1.4800000190734863 1.6000000238418579 1.440000057220459 1.5900000333786011 1.5499999523162842 1.5900000333786011 1.6000000238418579 1.4700000286102295 1.3799999952316284 1.2000000476837158 1.2300000190734863 2
84.639999389648438 84.889999389648437 85.089996337890625 85.279998779296875 85.5 85.760002136230469 85.970001220703125 86.30999755859375 86.790000915527344 87.010002136230469 87.239997863769531 87.669998168945313 87.949996948242188 88.110000610351563 88.260002136230469 88.269996643066406 88.389999389648437 88.510002136230469 88.379997253417969 88.139999389648438 87.949996948242188 87.970001220703125 87.94000244140625 87.830001831054687 87.669998168945313 87.589996337890625 87.400001525878906 87.220001220703125 87.029998779296875 86.870002746582031 86.55999755859375 86.209999084472656 85.800003051757812 85.290000915527344 84.779998779296875 84.129997253417969 83.550003051757812 82.919998168945313 82.330001831054688 81.69000244140625 81.010002136230469 80.069999694824219 79.319999694824219 78.709999084472656 78.139999389648437 77.589996337890625 77.089996337890625 76.30999755859375 75.629997253417969 74.989997863769531 74.360000610351562 73.69000244140625 73 72.290000915527344 71.550003051757812 70.819999694824219 70 69.099998474121094 68.239997863769531 67.360000610351563 66.430000305175781 65.260002136230469 64.080001831054687 62.930000305175781 61.869998931884766 61.040000915527344 60.369998931884766 59.770000457763672 59.189998626708984 58.430000305175781 57.779998779296875 56.950000762939453 56.150001525878906 55.340000152587891 54.520000457763672 53.720001220703125 52.840000152587891 52.130001068115234 51.419998168945313 50.700000762939453 50 49.310001373291016 48.619998931884766 47.900001525878906 47.159999847412109 46.430000305175781 45.630001068115234 44.889999389648438 43.979999542236328 43 41.990001678466797 41.130001068115234 39.200000762939453 38.590000152587891 38.470001220703125 37.099998474121094 36.110000610351563 35.110000610351562 34.009998321533203 33.080001831054688 32.180000305175781 30.360000610351563 30.299999237060547 30.260000228881836 30.170000076293945 29.700000762939453 28.379999160766602 27.280000686645508 26.270000457763672 25.340000152587891 24.479999542236328 23.540000915527344 22.239999771118164 21.209999084472656 20.489999771118164 19.739999771118164 19.430000305175781 18.559999465942383 17.420000076293945 16.450000762939453 16.120000839233398 15.819999694824219 14.189999580383301 13.710000038146973 13.590000152587891 13.050000190734863 11.989999771118164 10.819999694824219 9.2700004577636719 8.9300003051757812 8.7700004577636719 8.5699996948242187 8.25 7.3400001525878906 6.5399999618530273 5.6700000762939453 2.7799999713897705 2.869999885559082 2.7699999809265137 2.8900001049041748 2.7300000190734863 1.6000000238418579 1.5700000524520874 1.5399999618530273 1.5800000429153442 1.6100000143051147 1.5800000429153442 1.3600000143051147 1.440000057220459 1.559999942779541 1.5499999523162842 1.559999942779541 1.5199999809265137 1.5800000429153442 1.5499999523162842 1.5900000333786011 1.4299999475479126 1.6200000047683716 1.1399999856948853 1.2000000476837158 1.090999960899353 1.2200000286102295
83.930000305175781 84.300003051757813 84.680000305175781 84.970001220703125 85.269996643066406 85.430000305175781 85.75 85.870002746582031 86.019996643066406 86.360000610351563 86.650001525878906 87 87.370002746582031 87.589996337890625 87.699996948242187 87.830001831054687 87.860000610351563 87.889999389648438 87.819999694824219 87.610000610351563 87.389999389648438 87.529998779296875 87.430000305175781 87.279998779296875 87.05999755859375 86.910003662109375 86.699996948242188 86.569999694824219 86.379997253417969 86.169998168945313 85.980003356933594 85.669998168945313 85.339996337890625 84.879997253417969 84.379997253417969 83.790000915527344 83.199996948242187 82.519996643066406 81.830001831054688 81.110000610351563 80.220001220703125 79.540000915527344 79 78.449996948242188 77.80999755859375 77.120002746582031 76.550003051757813 75.610000610351563 74.860000610351563 74.279998779296875 73.669998168945313 72.989997863769531 72.30999755859375 71.610000610351563 70.889999389648438 70.129997253417969 69.290000915527344 68.419998168945313 67.529998779296875 66.55999755859375 65.419998168945313 64.199996948242188 62.950000762939453 61.830001831054688 60.869998931884766 60.139999389648438 59.569999694824219 59.020000457763672 58.400001525878906 57.529998779296875 56.860000610351562 56.069999694824219 55.299999237060547 54.520000457763672 53.659999847412109 52.880001068115234 52.060001373291016 51.279998779296875 50.569999694824219 49.919998168945313 49.259998321533203 48.639999389648438 47.959999084472656 47.25 46.610000610351563 45.939998626708984 45.229999542236328 44.560001373291016 43.689998626708984 42.720001220703125 41.619998931884766 40.729999542236328 39.819999694824219 38.080001831054688 37.959999084472656 36.909999847412109 35.830001831054688 35.049999237060547 34.150001525878906 33.520000457763672 32.720001220703125 30.340000152587891 30.190000534057617 30.200000762939453 29.889999389648438 28.920000076293945 27.989999771118164 27.25 26.510000228881836 25.530000686645508 24.680000305175781 23.229999542236328 22.290000915527344 21.200000762939453 20.340000152587891 19.780000686645508 19.290000915527344 18.370000839233398 17.569999694824219 16.510000228881836 16.020000457763672 15.439999580383301 14.390000343322754 14.109999656677246 13.060000419616699 12.619999885559082 10.770000457763672 10.729999542236328 9.6099996566772461 8.8100004196166992 8.6899995803833008 8.5 8 7.1399998664855957 5.8899998664855957 3.4000000953674316 2.8900001049041748 2.8199999332427979 2.9000000953674316 2.8299999237060547 1.809999942779541 1.5499999523162842 1.5700000524520874 1.5900000333786011 1.559999942779541 1.3999999761581421 1.309999942779541 1.3400000333786011 1.3669999837875366 1.5299999713897705 1.559999942779541 1.559999942779541 1.4500000476837158 1.5700000524520874 1.2999999523162842 1.4099999666213989 1.5299999713897705 1.6100000143051147 1.4299999475479126 1.3500000238418579 1.0900000333786011 0.98000001907348633
83.669998168945313 84.029998779296875 84.290000915527344 84.580001831054688 84.819999694824219 84.94000244140625 85.239997863769531 85.410003662109375 85.540000915527344 85.69000244140625 85.709999084472656 86.05999755859375 86.459999084472656 86.680000305175781 86.919998168945313 87.150001525878906 87.269996643066406 87.480003356933594 87.379997253417969 87.120002746582031 87.040000915527344 87.069999694824219 86.900001525878906 86.730003356933594 86.540000915527344 86.379997253417969 86.139999389648438 85.980003356933594 85.779998779296875 85.650001525878906 85.410003662109375 85.209999084472656 84.830001831054687 84.510002136230469 84.019996643066406 83.400001525878906 82.800003051757813 82.220001220703125 81.430000305175781 80.580001831054688 79.930000305175781 79.379997253417969 78.80999755859375 78.099998474121094 77.360000610351563 76.660003662109375 76.05999755859375 74.800003051757813 74.230003356933594 73.569999694824219 72.930000305175781 72.290000915527344 71.610000610351563 70.860000610351563 70.120002746582031 69.290000915527344 68.430000305175781 67.569999694824219 66.650001525878906 65.529998779296875 64.319999694824219 63.069999694824219 61.919998168945313 60.909999847412109 60.060001373291016 59.459999084472656 58.930000305175781 58.319999694824219 57.639999389648437 56.790000915527344 55.979999542236328 55.029998779296875 54.240001678466797 53.520000457763672 52.770000457763672 51.970001220703125 51.220001220703125 50.439998626708984 49.779998779296875 49.099998474121094 48.450000762939453 47.889999389648437 47.270000457763672 46.619998931884766 46.009998321533203 45.380001068115234 44.759998321533203 44.049999237060547 43.180000305175781 42.180000305175781 41.279998779296875 40.389999389648438 39.799999237060547 37.610000610351563 37.290000915527344 36.659999847412109 35.900001525878906 35 34.459999084472656 34.459999084472656 33.419998168945312 31.899999618530273 30.090000152587891 30.299999237060547 29.489999771118164 28.729999542236328 27.959999084472656 27.280000686645508 26.549999237060547 25.350000381469727 24.489999771118164 23.469999313354492 22.139999389648438 21.469999313354492 20.329999923706055 19.670000076293945 19.090000152587891 18.139999389648438 17.219999313354492 16.600000381469727 15.770000457763672 14.920000076293945 14.340000152587891 13.840000152587891 12.289999961853027 11.210000038146973 10.840000152587891 10.140000343322754 8.7799997329711914 8.6700000762939453 8.5200004577636719 8.4499998092651367 7.869999885559082 7.4699997901916504 5.5 2.7300000190734863 2.7599999904632568 2.7300000190734863 2.869999885559082 2.7899999618530273 1.5800000429153442 1.5900000333786011 1.5399999618530273 1.5800000429153442 1.5399999618530273 1.5900000333786011 1.468000054359436 1.4160000085830688 1.3630000352859497 1.3899999856948853 1.4199999570846558 1.559999942779541 1.3300000429153442 1.5199999809265137 1.5 1.3799999952316284 1.4099999666213989 1.5099999904632568 1.5900000333786011 1.559999942779541 1.309999942779541 1.2100000381469727
83.269996643066406 83.610000610351563 83.889999389648438 84.139999389648438 84.379997253417969 84.540000915527344 84.80999755859375 84.94000244140625 85.110000610351562 85.239997863769531 85.370002746582031 85.550003051757813 85.709999084472656 85.779998779296875 85.849998474121094 86.029998779296875 86.260002136230469 86.30999755859375 86.480003356933594 86.459999084472656 86.379997253417969 86.300003051757812 86.220001220703125 86.019996643066406 85.849998474121094 85.660003662109375 85.44000244140625 85.319999694824219 85.099998474121094 84.949996948242188 84.739997863769531 84.519996643066406 84.209999084472656 83.790000915527344 83.370002746582031 82.94000244140625 82.449996948242188 81.709999084472656 81.040000915527344 80.44000244140625 79.870002746582031 79.19000244140625 78.5 77.760002136230469 76.959999084472656 76.220001220703125 75.589996337890625 74.089996337890625 73.650001525878906 72.910003662109375 72.239997863769531 71.5 70.800003051757813 70.029998779296875 69.239997863769531 68.360000610351563 67.510002136230469 66.639999389648437 65.599998474121094 64.459999084472656 63.25 62.060001373291016 60.950000762939453 60.090000152587891 59.389999389648438 58.849998474121094 58.279998779296875 57.590000152587891 56.790000915527344 55.889999389648437 54.790000915527344 53.900001525878906 53.209999084472656 52.490001678466797 51.779998779296875 51.040000915527344 50.360000610351563 49.630001068115234 49.029998779296875 48.330001831054688 47.700000762939453 46.959999084472656 46.549999237060547 45.860000610351563 45.299999237060547 44.630001068115234 44.060001373291016 43.290000915527344 42.439998626708984 41.610000610351563 40.770000457763672 39.930000305175781 39.279998779296875 36.990001678466797 36.869998931884766 36.200000762939453 35.569999694824219 35.380001068115234 34.979999542236328 34.520000457763672 34.290000915527344 32.380001068115234 31.059999465942383 30.270000457763672 29.540000915527344 28.75 27.850000381469727 27.100000381469727 26.530000686645508 25.510000228881836 24.110000610351563 23.450000762939453 22.069999694824219 21.360000610351563 20.649999618530273 19.389999389648438 18.700000762939453 17.940000534057617 17.040000915527344 16.270000457763672 15.699999809265137 14.779999732971191 13.909999847412109 13.279999732971191 12.109999656677246 11.090000152587891 11.239999771118164 9.4399995803833008 8.7200002670288086 8.5299997329711914 8.3299999237060547 8.2899999618530273 7.4200000762939453 6.2800002098083496 3.0899999141693115 2.9300000667572021 2.6800000667572021 2.7300000190734863 2.7300000190734863 1.6799999475479126 1.5399999618530273 1.5499999523162842 1.5800000429153442 1.559999942779541 1.5199999809265137 1.468000054359436 1.4160000085830688 1.3760000467300415 1.3370000123977661 1.2970000505447388 1.2569999694824219 1.5199999809265137 1.2100000381469727 1.1499999761581421 1.2200000286102295 1.4199999570846558 1.25 1.2999999523162842 1.5199999809265137 1.5800000429153442 1.2100000381469727 1.190000057220459
82.889999389648438 83.169998168945313 83.430000305175781 83.699996948242187 83.949996948242188 84.129997253417969 84.330001831054687 84.44000244140625 84.610000610351562 84.760002136230469 84.949996948242188 85.080001831054687 85.19000244140625 85.349998474121094 85.389999389648437 85.44000244140625 85.489997863769531 85.470001220703125 85.370002746582031 85.389999389648437 85.319999694824219 85.209999084472656 85.089996337890625 85 84.830001831054687 84.589996337890625 84.319999694824219 84.089996337890625 83.879997253417969 83.699996948242187 83.480003356933594 83.230003356933594 83 82.80999755859375 82.489997863769531 82.230003356933594 81.819999694824219 81.419998168945313 80.889999389648437 80.339996337890625 79.610000610351563 78.930000305175781 78.209999084472656 77.449996948242187 76.620002746582031 75.849998474121094 75.120002746582031 73.150001525878906 72.910003662109375 72.349998474121094 71.599998474121094 70.819999694824219 70.010002136230469 69.199996948242188 68.300003051757813 67.360000610351563 66.540000915527344 65.580001831054687 64.540000915527344 63.450000762939453 62.259998321533203 61.139999389648438 60.200000762939453 59.409999847412109 58.830001831054687 58.229999542236328 57.529998779296875 56.740001678466797 55.840000152587891 54.909999847412109 53.819999694824219 52.880001068115234 52.139999389648438 51.459999084472656 50.770000457763672 50.099998474121094 49.430000305175781 48.819999694824219 48.150001525878906 47.529998779296875 46.930000305175781 46.330001831054688 45.709999084472656 45.110000610351562 44.509998321533203 43.849998474121094 43.159999847412109 42.470001220703125 41.75 40.970001220703125 40.169998168945313 39.450000762939453 38.950000762939453 36.229999542236328 36.099998474121094 36.040000915527344 35.409999847412109 35.069999694824219 34.709999084472656 34.450000762939453 34.180000305175781 32.180000305175781 31.389999389648438 30.340000152587891 29.610000610351563 28.770000457763672 28.020000457763672 27.190000534057617 26.100000381469727 25.299999237060547 24.520000457763672 22.950000762939453 22.190000534057617 21.409999847412109 20.270000457763672 19.430000305175781 18.510000228881836 17.739999771118164 17.239999771118164 16.629999160766602 15.420000076293945 15.050000190734863 13.770000457763672 12.949999809265137 12.260000228881836 10.670000076293945 10.510000228881836 9.4600000381469727 8.5900001525878906 8.2899999618530273 8.2600002288818359 7.2300000190734863 6.130000114440918 5 2.7599999904632568 2.7699999809265137 2.559999942779541 2.690000057220459 2.5299999713897705 1.4500000476837158 1.5399999618530273 1.5099999904632568 1.4900000095367432 1.5169999599456787 1.4529999494552612 1.3899999856948853 1.3259999752044678 1.2619999647140503 1.1979999542236328 1.1909999847412109 1.2039999961853027 1.215999960899353 1.3070000410079956 1.4609999656677246 1.4839999675750732 1.7000000476837158 1.190000057220459 1.4900000095367432 1.3619999885559082 1.3500000238418579 1.2029999494552612 1.0549999475479126
82.44000244140625 82.720001220703125 82.980003356933594 83.199996948242187 83.459999084472656 83.599998474121094 83.760002136230469 83.889999389648438 84.05999755859375 84.19000244140625 84.379997253417969 84.510002136230469 84.629997253417969 84.870002746582031 84.900001525878906 84.919998168945313 84.959999084472656 84.900001525878906 84.860000610351563 84.739997863769531 84.730003356933594 84.550003051757812 84.419998168945313 84.269996643066406 84.110000610351563 83.849998474121094 83.589996337890625 83.319999694824219 83.099998474121094 82.870002746582031 82.650001525878906 82.449996948242188 82.330001831054688 82.169998168945313 81.970001220703125 81.769996643066406 81.419998168945313 81.019996643066406 80.540000915527344 80 79.360000610351563 78.629997253417969 77.879997253417969 77.099998474121094 76.300003051757813 75.470001220703125 74.720001220703125 74.010002136230469 72.540000915527344 71.959999084472656 71 70.169998168945313 69.290000915527344 68.379997253417969 67.419998168945313 66.449996948242188 65.5 64.569999694824219 63.540000915527344 62.430000305175781 61.400001525878906 60.400001525878906 59.560001373291016 58.880001068115234 58.259998321533203 57.529998779296875 56.75 55.830001831054688 54.840000152587891 53.799999237060547 52.759998321533203 51.840000152587891 51.189998626708984 50.509998321533203 49.860000610351563 49.189998626708984 48.540000915527344 47.909999847412109 47.279998779296875 46.669998168945313 46.029998779296875 45.470001220703125 44.880001068115234 44.270000457763672 43.650001525878906 42.919998168945313 42.310001373291016 41.659999847412109 40.970001220703125 40.25 39.599998474121094 38.990001678466797 38.049999237060547 35.650001525878906 35.439998626708984 35.950000762939453 35.419998168945313 34.900001525878906 34.639999389648438 34.450000762939453 34.139999389648438 32.810001373291016 31.899999618530273 30.479999542236328 29.809999465942383 28.860000610351562 27.969999313354492 27.25 26 24.940000534057617 24.200000762939453 23.450000762939453 22.040000915527344 21.409999847412109 20.780000686645508 19.260000228881836 18.639999389648437 17.559999465942383 16.729999542236328 16.389999389648437 15.399999618530273 14.670000076293945 13.859999656677246 12.890000343322754 11.340000152587891 10.340000152587891 9.7600002288818359 9.1599998474121094 8.4300003051757812 8.2399997711181641 7.309999942779541 5.8400001525878906 4.679999828338623 3.4900000095367432 2.7899999618530273 2.6500000953674316 2.6600000858306885 2.6800000667572021 1.7899999618530273 1.4099999666213989 1.4600000381469727 1.2899999618530273 1.3079999685287476 1.2439999580383301 1.1799999475479126 1.1670000553131104 1.1799999475479126 1.1920000314712524 1.2050000429153442 1.218000054359436 1.2300000190734863 1.2430000305175781 1.3250000476837158 1.4789999723434448 1.5429999828338623 1.3509999513626099 1.1540000438690186 1.125 1.2610000371932983 1.3969999551773071 1.2979999780654907 1.1510000228881836
82.089996337890625 82.330001831054688 82.550003051757813 82.760002136230469 82.930000305175781 83.050003051757813 83.279998779296875 83.370002746582031 83.540000915527344 83.669998168945313 83.839996337890625 83.94000244140625 84.080001831054688 84.30999755859375 84.349998474121094 84.410003662109375 84.360000610351563 84.30999755859375 84.220001220703125 84.080001831054688 84.099998474121094 83.970001220703125 83.849998474121094 83.699996948242187 83.510002136230469 83.25 83.050003051757813 82.830001831054688 82.550003051757813 82.349998474121094 82.089996337890625 81.860000610351563 81.720001220703125 81.540000915527344 81.319999694824219 81.069999694824219 80.860000610351563 80.510002136230469 80.05999755859375 79.550003051757812 78.959999084472656 78.279998779296875 77.589996337890625 76.800003051757813 75.949996948242188 75.199996948242187 74.400001525878906 73.80999755859375 72.199996948242188 71.610000610351563 70.580001831054688 69.69000244140625 68.739997863769531 67.739997863769531 66.709999084472656 65.669998168945313 64.620002746582031 63.630001068115234 62.590000152587891 61.569999694824219 60.650001525878906 59.779998779296875 59.040000915527344 58.299999237060547 57.569999694824219 56.770000457763672 55.880001068115234 54.869998931884766 53.840000152587891 52.889999389648438 51.840000152587891 50.919998168945313 50.349998474121094 49.680000305175781 49 48.340000152587891 47.610000610351562 46.990001678466797 46.360000610351563 45.740001678466797 45.130001068115234 44.529998779296875 43.950000762939453 43.360000610351562 42.729999542236328 42.130001068115234 41.479999542236328 40.869998931884766 40.189998626708984 39.560001373291016 38.909999847412109 38.450000762939453 37.569999694824219 35.380001068115234 34.259998321533203 35.630001068115234 35.020000457763672 34.580001831054687 34.569999694824219 34.279998779296875 34.090000152587891 33.470001220703125 31.799999237060547 30.940000534057617 30.120000839233398 28.870000839233398 28.059999465942383 27.129999160766602 26.180000305175781 25.020000457763672 23.920000076293945 23.209999084472656 22.540000915527344 21.120000839233398 20.629999160766602 19.549999237060547 18.260000228881836 17.559999465942383 16.559999465942383 15.859999656677246 14.770000457763672 14.619999885559082 12.460000038146973 10.529999732971191 10.420000076293945 10.140000343322754 9.5900001525878906 8.9700002670288086 8.25 7.7600002288818359 6.869999885559082 6.1999998092651367 4.5 2.880000114440918 2.869999885559082 2.5299999713897705 2.6500000953674316 2.6800000667572021 1.5800000429153442 1.3999999761581421 1.3600000143051147 1.2899999618530273 1.156000018119812 1.1679999828338623 1.1809999942779541 1.1940000057220459 1.2059999704360962 1.218999981880188 1.2319999933242798 1.2450000047683716 1.2569999694824219 1.2699999809265137 1.343000054359436 1.4980000257492065 1.5540000200271606 1.4160000085830688 1.218999981880188 1.1109999418258667 1.1599999666213989 1.2960000038146973 1.3839999437332153 1.2460000514984131
81.680000305175781 81.900001525878906 82.110000610351563 82.290000915527344 82.349998474121094 82.599998474121094 82.760002136230469 82.830001831054688 82.989997863769531 83.120002746582031 83.290000915527344 83.400001525878906 83.519996643066406 83.699996948242187 83.69000244140625 83.790000915527344 83.830001831054687 83.699996948242187 83.650001525878906 83.489997863769531 83.459999084472656 83.30999755859375 83.19000244140625 83.019996643066406 82.839996337890625 82.650001525878906 82.370002746582031 82.169998168945313 81.919998168945313 81.650001525878906 81.430000305175781 81.169998168945313 80.989997863769531 80.800003051757813 80.589996337890625 80.360000610351563 80.120002746582031 79.849998474121094 79.510002136230469 79.089996337890625 78.529998779296875 77.949996948242188 77.25 76.489997863769531 75.739997863769531 74.930000305175781 74.089996337890625 73.370002746582031 71.989997863769531 71.180000305175781 70.25 69.300003051757812 68.30999755859375 67.279998779296875 66.19000244140625 65.120002746582031 63.979999542236328 62.869998931884766 61.869998931884766 60.889999389648438 60.029998779296875 59.180000305175781 58.439998626708984 57.669998168945313 56.830001831054688 55.889999389648437 54.970001220703125 53.919998168945312 52.939998626708984 51.990001678466797 51.040000915527344 50.090000152587891 49.540000915527344 48.860000610351563 48.200000762939453 47.520000457763672 46.799999237060547 46.110000610351563 45.450000762939453 44.830001831054687 44.180000305175781 43.580001831054688 42.970001220703125 42.430000305175781 41.779998779296875 41.200000762939453 40.610000610351563 40.060001373291016 39.439998626708984 38.810001373291016 38.290000915527344 37.580001831054688 36.75 35.490001678466797 33.150001525878906 33.419998168945312 34.25 34.389999389648438 34.25 34.139999389648438 33.610000610351563 32.360000610351562 31.200000762939453 30.770000457763672 30.159999847412109 28.909999847412109 27.920000076293945 26.989999771118164 25.989999771118164 24.959999084472656 24.139999389648438 22.940000534057617 22.110000610351563 21.600000381469727 20.510000228881836 19.319999694824219 18.690000534057617 17.430000305175781 16.489999771118164 15.380000114440918 14.600000381469727 13.130000114440918 10.569999694824219 10.609999656677246 10.340000152587891 9.9799995422363281 9.3599996566772461 9.0900001525878906 8.1000003814697266 6.9800000190734863 6.6999998092651367 6.429999828338623 5.9200000762939453 2.7000000476837158 2.7899999618530273 2.690000057220459 2.7400000095367432 1.7200000286102295 1.4600000381469727 1.468000054359436 1.3049999475479126 1.1529999971389771 1.1809999942779541 1.1950000524520874 1.2079999446868896 1.2209999561309814 1.2330000400543213 1.2460000514984131 1.2589999437332153 1.2710000276565552 1.284000039100647 1.2970000505447388 1.3619999885559082 1.5160000324249268 1.5640000104904175 1.4800000190734863 1.2829999923706055 1.1289999485015869 1.1139999628067017 1.1940000057220459 1.3300000429153442 1.3420000076293945
