ncols        161
nrows        32
xllcorner    241280
yllcorner    52670
cellsize     10.000000000000
NODATA_value  -9999
97.270004272460938 96.487503051757813 95.599998474121094 94.542495727539063 93.3125 91.895004272460938 90.270004272460938 88.462501525878906 86.547500610351563 83.482498168945313 80.830001831054688 78.197502136230469 73.294998168945313 71.129997253417969 68.794998168945313 66.867500305175781 65.245002746582031 64.182502746582031 64.264999389648437 64.095001220703125 63.720001220703125 63.212501525878906 62.502498626708984 61.595001220703125 60.582500457763672 58.402500152587891 56.772499084472656 55.222499847412109 54.222499847412109 52.764999389648437 50.474998474121094 47.712501525878906 45.027500152587891 41.625 37.637500762939453 33.147499084472656 29.382499694824219 25.744998931884766 25.602500915527344 25.247499465942383 24.645000457763672 26.677499771118164 30.264999389648437 34.299999237060547 37.959999084472656 41.409999847412109 45.310001373291016 49.337501525878906 52.670001983642578 54.497501373291016 55.145000457763672 55.1875 54.705001831054688 53.792499542236328 52.520000457763672 50.87750244140625 48.799999237060547 46.5625 44.257499694824219 40.889999389648438 37.157501220703125 33.277500152587891 30.127500534057617 28.552499771118164 28.232500076293945 30.082500457763672 33.252498626708984 36.762500762939453 38.709999084472656 40.520000457763672 42.737499237060547 44.279998779296875 46.397499084472656 48.607498168945313 49.159999847412109 49.537498474121094 49.540000915527344 49.479999542236328 49.242500305175781 48.787498474121094 48.152500152587891 47.857498168945313 47.549999237060547 47.084999084472656 46.552501678466797 46.042499542236328 45.597499847412109 45.037498474121094 44.4375 43.672500610351563 42.742500305175781 41.55999755859375 40.352500915527344 39.172500610351563 38.072502136230469 37.042499542236328 36.159999847412109 35.224998474121094 34.154998779296875 32.927497863769531 31.909999847412109 30.987499237060547 29.985000610351562 29.007499694824219 27.954999923706055 26.755001068115234 25.270000457763672 24.342500686645508 23.007499694824219 21.652500152587891 20.332500457763672 18.965000152587891 17.577499389648438 16.232500076293945 14.960000038146973 13.667499542236328 12.479999542236328 10.960000038146973 9.9375 9.0699996948242187 8.2600002288818359 7.3924999237060547 6.4524998664855957 5.9049997329711914 5.2925000190734863 4.2975001335144043 3.3499999046325684 2.2850000858306885 1.7200000286102295 1.1675000190734863 1.3624999523162842 1.1024999618530273 1.2100000381469727 1.1924999952316284 1.1525000333786011 1.3324999809265137 0.70999997854232788 1.0800000429153442 1.4850000143051147 1.8199999332427979 1.6549999713897705 1.3899999856948853 1.3200000524520874 1.6449999809265137 3.7599999904632568 4.4600000381469727 5.1475000381469727 5.7200002670288086 6.179999828338623 6.4549999237060547 6.6100001335144043 6.7224998474121094 6.0999999046325684 6.005000114440918 6.497499942779541 7.8450002670288086 8.369999885559082 8.9149999618530273 9.807499885559082 10.845000267028809 11.890000343322754
97.407501220703125 96.495002746582031 95.485000610351563 94.305000305175781 93.089996337890625 91.75250244140625 90.205001831054688 88.459999084472656 86.602500915527344 83.592498779296875 81.157501220703125 77.422500610351563 73.422500610351563 70.007499694824219 66.69000244140625 64.022499084472656 61.849998474121094 60.099998474121094 58.722499847412109 58.299999237060547 57.957500457763672 57.617500305175781 57.450000762939453 56.979999542236328 55.462501525878906 53.665000915527344 52.232498168945313 50.654998779296875 49.415000915527344 48.052497863769531 45.520000457763672 42.919998168945313 40.477500915527344 37.200000762939453 33.722499847412109 29.934999465942383 26.872501373291016 25.297750473022461 25.216499328613281 25.427499771118164 25.857500076293945 28.827499389648438 32.642501831054688 36.555000305175781 40.474998474121094 43.860000610351563 47.939998626708984 51.709999084472656 54.547500610351563 56.040000915527344 56.770000457763672 56.887500762939453 56.165000915527344 55.159999847412109 53.900001525878906 52.375 50.5625 48.572502136230469 46.229999542236328 42.717498779296875 38.915000915527344 34.904998779296875 31.322500228881836 29.510000228881836 28.722499847412109 30.457500457763672 33.364997863769531 37.162498474121094 40.617500305175781 43.959999084472656 46.215000152587891 47.939998626708984 48.489997863769531 48.744998931884766 48.549999237060547 49.792499542236328 50.360000610351563 50.092498779296875 49.700000762939453 49.110000610351563 47.915000915527344 47.560001373291016 47.014999389648438 46.347499847412109 45.630001068115234 44.982498168945313 44.387500762939453 43.817501068115234 43.084999084472656 42.319999694824219 41.4375 40.407501220703125 39.259998321533203 38.212501525878906 37.275001525878906 36.444999694824219 35.487499237060547 34.220001220703125 33.165000915527344 32.150001525878906 31.220001220703125 30.209999084472656 29.180000305175781 28.184999465942383 27.112499237060547 26.020000457763672 24.752500534057617 23.399999618530273 22.1875 20.942501068115234 19.880001068115234 18.585000991821289 17.097499847412109 15.235000610351562 13.824999809265137 12.670000076293945 11.697500228881836 10.779999732971191 9.9025001525878906 8.9575004577636719 8.3225002288818359 7.4600000381469727 6.6774997711181641 6.005000114440918 5.3350000381469727 4.3299999237060547 3.5225000381469727 2.684999942779541 1.9650000333786011 1.7050000429153442 1.6675000190734863 1.0874999761581421 1.0774999856948853 1.2925000190734863 1.2874999046325684 1.2699999809265137 1.2699999809265137 0.97000002861022949 1.2450000047683716 1.8600000143051147 1.747499942779541 1.4199999570846558 1.4550000429153442 1.4574999809265137 3.3299999237060547 4.1149997711181641 4.8499999046325684 5.3949999809265137 5.7975001335144043 5.9800000190734863 6.0149998664855957 5.7649998664855957 5.5900001525878906 5.3824996948242188 7.059999942779541 7.6949996948242187 8.2600002288818359 9.1075000762939453 10.087499618530273 11.130000114440918 12.225000381469727
97.5 96.529998779296875 95.4425048828125 94.227500915527344 92.959999084472656 91.612503051757813 90.107498168945313 88.404998779296875 86.62750244140625 84.620002746582031 81.74749755859375 77.364997863769531 73.639999389648437 69.467498779296875 65.5574951171875 61.930000305175781 59.014999389648437 57.137500762939453 55.194999694824219 53.709999084472656 52.854999542236328 52.549999237060547 52.407501220703125 51.840000152587891 50.885002136230469 49.310001373291016 47.730003356933594 46.169998168945313 44.619998931884766 42.697502136230469 40.727500915527344 38.4375 36.037498474121094 33.147499084472656 30.125 27.417499542236328 25.332500457763672 25.857500076293945 25.527500152587891 25.694999694824219 28.127500534057617 31.632499694824219 35.24749755859375 39.040000915527344 42.722499847412109 46.602500915527344 50.715000152587891 54.034999847412109 56.12249755859375 57.257499694824219 57.724998474121094 57.705001831054688 56.989997863769531 56.027500152587891 54.797500610351563 53.332500457763672 51.665000915527344 49.87249755859375 47.5625 43.987499237060547 40.180000305175781 36.145000457763672 32.435001373291016 30.362499237060547 29.145000457763672 30.947500228881836 33.702499389648438 37.224998474121094 40.939998626708984 44.172500610351563 46.915000915527344 48.900001525878906 50.270000457763672 51.12750244140625 51.544998168945313 51.31500244140625 50.337501525878906 50.575000762939453 50.185001373291016 49.442501068115234 48.262500762939453 47.537498474121094 46.744998931884766 45.897499084472656 44.977500915527344 44.052497863769531 43.260002136230469 42.507499694824219 41.747501373291016 40.974998474121094 40.132499694824219 39.242500305175781 38.215000152587891 37.24749755859375 36.340000152587891 35.402500152587891 34.30999755859375 33.287498474121094 32.222499847412109 31.287500381469727 30.452499389648437 29.514999389648438 28.467498779296875 27.424999237060547 26.314998626708984 25.217498779296875 24.174999237060547 23.090000152587891 21.322500228881836 20.149999618530273 18.412500381469727 17.177499771118164 15.75 14.409999847412109 13.322500228881836 12.404999732971191 11.482500076293945 10.604999542236328 9.8249998092651367 8.9724998474121094 8.3325004577636719 7.507500171661377 6.747499942779541 5.9800000190734863 5.1750001907348633 4.4099998474121094 3.7574999332427979 3.0225000381469727 2.2249999046325684 1.8174999952316284 1.622499942779541 1.5149999856948853 1.0899999141693115 1.2874999046325684 1.2400000095367432 1.3324999809265137 1.1575000286102295 0.99750000238418579 1.3949999809265137 1.8849999904632568 1.4800000190734863 1.3450000286102295 1.3324999809265137 1.247499942779541 2.7150001525878906 3.617499828338623 4.3649997711181641 4.880000114440918 5.1675000190734863 5.1999998092651367 5.3425002098083496 5.0174999237060547 4.567500114440918 5.434999942779541 6.867499828338623 7.7049999237060547 8.3899993896484375 9.3950004577636719 10.385000228881836 11.4375 12.517499923706055
97.472503662109375 96.525001525878906 95.444999694824219 94.254997253417969 93.007499694824219 91.639999389648437 90.1824951171875 88.582504272460938 86.800003051757813 85.220001220703125 81.5 78.095001220703125 74 69.512496948242188 65.025001525878906 60.907501220703125 57.277500152587891 54.494998931884766 52.475002288818359 50.787502288818359 49.37249755859375 48.24749755859375 47.689998626708984 47.224998474121094 46.427497863769531 45.162498474121094 43.385002136230469 41.614997863769531 39.897499084472656 37.959999084472656 36.032501220703125 34.139999389648438 31.899999618530273 29.670000076293945 27.540000915527344 25.552499771118164 25.267000198364258 25.380001068115234 26.707500457763672 28.447500228881836 31.204999923706055 34.427501678466797 38.072502136230469 41.764999389648438 45.547500610351563 49.287498474121094 53.152500152587891 55.557498931884766 57.090000152587891 57.862499237060547 58.235000610351562 58.052497863769531 57.409999847412109 56.50250244140625 55.444999694824219 54.014999389648438 52.485000610351562 50.692501068115234 48.267501831054688 44.817501068115234 41.06500244140625 37.014999389648438 33.294998168945313 31.045000076293945 29.460000991821289 31.474998474121094 34.224998474121094 37.792499542236328 41.404998779296875 44.775001525878906 47.677497863769531 49.882499694824219 51.510002136230469 52.452499389648438 52.877498626708984 52.885002136230469 52.610000610351563 52.022499084472656 50.384998321533203 49.612499237060547 48.572498321533203 47.529998779296875 46.604999542236328 45.522499084472656 44.415000915527344 43.31500244140625 42.274997711181641 41.424999237060547 40.514999389648437 39.735000610351562 38.957500457763672 38.034999847412109 37.169998168945313 36.260002136230469 35.360000610351563 34.392498016357422 33.370002746582031 32.389999389648438 31.367500305175781 30.494998931884766 29.572500228881836 28.719999313354492 27.790000915527344 26.665000915527344 25.315000534057617 24.185001373291016 22.942499160766602 21.717498779296875 20.370000839233398 19.227499008178711 18.065000534057617 16.667499542236328 15.239999771118164 14.019999504089355 13.022500038146973 12.132499694824219 11.300000190734863 10.454999923706055 9.6750001907348633 8.7349996566772461 8.2375001907348633 7.559999942779541 6.6875 5.9700002670288086 5.3000001907348633 4.5850000381469727 3.940000057220459 3.2899999618530273 2.0099999904632568 1.625 1.6475000381469727 1.6075000762939453 1.2725000381469727 1.3500000238418579 1.1974999904632568 1.2925000190734863 1.0375000238418579 1.1549999713897705 1.4874999523162842 1.8524999618530273 1.4300000667572021 1.3174999952316284 1.3524999618530273 1.4175000190734863 2.4749999046325684 3.130000114440918 3.7350001335144043 4.1999998092651367 4.4049997329711914 3.7850000858306885 3.5974998474121094 4.0850000381469727 4.2100000381469727 5.5725002288818359 6.7725000381469727 7.6649999618530273 8.7100000381469727 9.6599998474121094 10.670000076293945 11.720000267028809 12.827500343322754
97.415000915527344 96.432502746582031 95.397499084472656 94.277496337890625 93.092498779296875 91.8125 90.470001220703125 88.904998779296875 87.197494506835938 84.917495727539063 82.12249755859375 78.694999694824219 74.457504272460938 69.544998168945313 64.830001831054688 60.422500610351563 56.479999542236328 53.029998779296875 50.362499237060547 48.472499847412109 46.389999389648438 45.139999389648438 44.485000610351562 43.652500152587891 42.519996643066406 41.165000915527344 39.462501525878906 37.404998779296875 35.479999542236328 33.514999389648438 32.020000457763672 30.165000915527344 28.530000686645508 27.860000610351563 25.684999465942383 25.266750335693359 27.295000076293945 27.610000610351563 29.380001068115234 31.577499389648437 34.459999084472656 37.677497863769531 41.237499237060547 44.909999847412109 48.517498016357422 52.217498779296875 55.232501983642578 56.667499542236328 57.614997863769531 58.12750244140625 58.110000610351563 57.882499694824219 57.314998626708984 56.612503051757812 55.627498626708984 54.479999542236328 53.134998321533203 51.1875 48.8125 45.275001525878906 41.452499389648438 37.497501373291016 33.965000152587891 31.822500228881836 30.227500915527344 32.202499389648438 35.05999755859375 38.625 42.290000915527344 45.727500915527344 48.709999084472656 51.182498931884766 52.647499084472656 53.485000610351563 53.880001068115234 53.885002136230469 53.552497863769531 52.962501525878906 51.962501525878906 50.790000915527344 48.557498931884766 47.549999237060547 46.459999084472656 45.194999694824219 43.985000610351563 42.760002136230469 41.5625 40.452499389648438 39.417499542236328 38.612499237060547 37.947498321533203 37.117500305175781 36.244998931884766 35.337501525878906 34.314998626708984 33.347499847412109 32.362499237060547 31.334999084472656 30.529998779296875 29.744998931884766 28.747499465942383 27.767499923706055 26.807498931884766 25.897499084472656 24.940000534057617 23.659999847412109 22.369998931884766 21.047500610351562 19.805000305175781 18.584999084472656 17.432498931884766 15.962499618530273 14.807499885559082 13.772500038146973 12.797500610351562 11.9375 11.092500686645508 10.265000343322754 9.4049997329711914 8.5850000381469727 7.9399995803833008 7.4224996566772461 6.7600002288818359 5.9124999046325684 5.25 4.6324996948242187 4.070000171661377 3.554999828338623 1.8700000047683716 1.497499942779541 1.3575000762939453 1.4900000095367432 1.3324999809265137 1.4299999475479126 1.4024999141693115 1.2400000095367432 1.3274999856948853 1.3624999523162842 1.2024999856948853 1.5799999237060547 1.4750000238418579 1.252500057220459 1.4225000143051147 1.4550000429153442 2.0850000381469727 2.6700000762939453 3.1449999809265137 3.4049999713897705 3.5250000953674316 2.9825000762939453 3.4300000667572021 3.4000000953674316 4.8125 6.0425000190734863 6.7825002670288086 7.755000114440918 8.8524999618530273 9.9149999618530273 10.967500686645508 12.055000305175781 13.142499923706055
97.139999389648438 96.254997253417969 95.180000305175781 94.175003051757813 93.117500305175781 91.927497863769531 90.555000305175781 89.010002136230469 87.735000610351562 85.182502746582031 82.607498168945313 79.205001831054688 74.757499694824219 69.772499084472656 64.902496337890625 60.279998779296875 56.075000762939453 52.325000762939453 49.032501220703125 46.279998779296875 44.417499542236328 43.167503356933594 41.915000915527344 40.662498474121094 39.367500305175781 37.840000152587891 36.112499237060547 34.06500244140625 32.322750091552734 30.357500076293945 28.432498931884766 28.055000305175781 27.409999847412109 27.126750946044922 28.057500839233398 28.242500305175781 29.467500686645508 30.747499465942383 32.375 34.604999542236328 37.555000305175781 40.965000152587891 44.610000610351563 48.279998779296875 51.627498626708984 54.902500152587891 56.897499084472656 57.722499847412109 58.209999084472656 58.369998931884766 58.092498779296875 57.700000762939453 57.127498626708984 56.505001068115234 55.607498168945313 54.607498168945312 53.470001220703125 51.692501068115234 49.334999084472656 45.699996948242188 41.74749755859375 37.680000305175781 34.142501831054687 31.667499542236328 30.989999771118164 33.194999694824219 36.092498779296875 39.637500762939453 43.305000305175781 46.662498474121094 49.645000457763672 51.9375 53.310001373291016 54.042499542236328 54.229999542236328 54.137500762939453 53.759998321533203 53.162498474121094 52.345001220703125 51.299999237060547 49.867500305175781 47.130001068115234 46.237499237060547 44.950000762939453 43.514999389648438 42.102500915527344 40.790000915527344 39.645000457763672 38.637500762939453 37.802497863769531 37.047500610351563 36.209999084472656 35.197502136230469 34.147499084472656 33.082500457763672 32.180000305175781 31.352500915527344 30.422500610351562 29.715000152587891 28.614999771118164 27.950000762939453 27.049999237060547 26.180000305175781 25.204999923706055 24.1875 22.912500381469727 21.709999084472656 20.392499923706055 18.939998626708984 17.809999465942383 16.860000610351563 15.307499885559082 14.142499923706055 13.282499313354492 12.317500114440918 11.522500038146973 10.704999923706055 9.8975000381469727 9.1724996566772461 8.4849996566772461 7.6525001525878906 7.2224998474121094 6.6399998664855957 6.0074996948242188 5.2874999046325684 4.6574997901916504 4.0775003433227539 2.6400001049041748 1.5924999713897705 1.3025000095367432 1.6399999856948853 1.4950000047683716 1.2450000047683716 1.6449999809265137 1.5575000047683716 1.434999942779541 1.3424999713897705 1.3075000047683716 1.2174999713897705 1.3324999809265137 1.3250000476837158 1.3975000381469727 1.4474999904632568 1.502500057220459 1.8125 2.375 2.5924999713897705 2.747499942779541 2.8324999809265137 2.4574999809265137 2.5974998474121094 4.1750001907348633 5.4149999618530273 5.9475002288818359 7.1675000190734863 7.9200000762939453 9.0200004577636719 10.247499465942383 11.362500190734863 12.420000076293945 13.452500343322754
96.705001831054688 95.862503051757812 94.955001831054687 93.967498779296875 92.87249755859375 91.705001831054688 90.455001831054687 89.18499755859375 87.415000915527344 85.56500244140625 83.169998168945313 79.647499084472656 74.9949951171875 69.870002746582031 64.9375 60.292499542236328 55.922500610351563 51.94000244140625 48.479999542236328 45.215000152587891 43.242500305175781 41.439998626708984 39.904998779296875 38.527500152587891 37.034999847412109 35.540000915527344 33.762500762939453 31.603750228881836 29.717498779296875 29.147499084472656 29.119998931884766 29.767499923706055 29.575000762939453 29.397499084472656 30.217498779296875 31.055000305175781 32.132499694824219 33.630001068115234 35.447502136230469 37.779998779296875 40.744998931884766 44.235000610351562 48.010002136230469 51.620002746582031 54.520000457763672 56.880001068115234 58.142501831054687 58.619998931884766 58.742500305175781 58.582500457763672 58.19000244140625 57.607498168945313 56.997501373291016 56.287498474121094 55.404998779296875 54.514999389648437 53.494998931884766 52.047500610351563 49.742500305175781 45.972499847412109 41.819999694824219 37.682498931884766 34.325000762939453 31.029998779296875 31.922500610351563 34.197498321533203 37.134998321533203 40.682498931884766 44.342498779296875 47.724998474121094 50.504997253417969 52.607498168945313 53.777500152587891 54.417499542236328 54.5 54.232498168945313 53.792499542236328 53.137500762939453 52.224998474121094 51.027500152587891 49.575000762939453 47.927497863769531 45.632499694824219 44.587501525878906 43.162498474121094 41.677497863769531 40.272499084472656 39.095001220703125 37.955001831054687 36.947502136230469 36.014999389648438 35.022499084472656 33.965000152587891 32.959999084472656 31.974998474121094 31.090000152587891 30.452499389648437 29.637500762939453 28.774999618530273 27.924999237060547 27.077499389648437 26.149999618530273 25.145000457763672 24.145000457763672 23.239999771118164 22.377500534057617 21.227500915527344 19.817501068115234 18.332500457763672 17.287500381469727 16.319999694824219 14.692500114440918 13.619999885559082 12.792500495910645 11.954999923706055 11.197500228881836 10.392499923706055 9.682499885559082 8.9525003433227539 8.2799997329711914 7.494999885559082 7.0325002670288086 6.4274997711181641 5.9175000190734863 5.3474998474121094 4.7325000762939453 4.179999828338623 2.5 1.5850000381469727 1.5074999332427979 1.5099999904632568 1.3474999666213989 1.3799999952316284 1.3824999332427979 1.4674999713897705 1.2925000190734863 1.3550000190734863 1.2749999761581421 1.4249999523162842 1.4024999141693115 1.4024999141693115 1.1475000381469727 1.4674999713897705 1.627500057220459 1.2150000333786011 1.7174999713897705 2.0374999046325684 2.2899999618530273 2.372499942779541 2.8250000476837158 2.6525001525878906 4.9149999618530273 6.4149999618530273 6.7200002670288086 7.7249999046325684 8.4825000762939453 9.432499885559082 10.699999809265137 11.840000152587891 12.895000457763672 13.940000534057617
96.290000915527344 95.432502746582031 94.5574951171875 93.629997253417969 92.625 91.449996948242188 90.389999389648438 89.162498474121094 87.180000305175781 85.349998474121094 83.102500915527344 79.680000305175781 74.6925048828125 69.4949951171875 64.737503051757813 60.197498321533203 55.802497863769531 51.737499237060547 47.697502136230469 44.595001220703125 42.229999542236328 40.157501220703125 38.472499847412109 37.049999237060547 35.492500305175781 34.364997863769531 32.657501220703125 30.510000228881836 30.452499389648437 29.895000457763672 30.327499389648438 31.167499542236328 31.522499084472656 31.790000915527344 32.334999084472656 33.442501068115234 34.8125 36.5 38.55999755859375 40.979999542236328 43.935001373291016 47.380001068115234 51.082500457763672 54.395000457763672 56.834999084472656 58.547500610351562 59.254997253417969 59.404998779296875 59.252498626708984 58.912498474121094 58.329998016357422 57.625 56.932502746582031 56.057498931884766 55.105003356933594 54.1875 53.314998626708984 52.012500762939453 49.764999389648438 45.974998474121094 41.649997711181641 37.5 34.724998474121094 31.522499084472656 33.0625 35.290000915527344 38.270000457763672 41.779998779296875 45.529998779296875 48.875 51.5 53.247501373291016 54.135002136230469 54.470001220703125 54.430000305175781 54.080001831054688 53.645000457763672 52.955001831054688 52.029998779296875 50.830001831054687 49.329998016357422 47.422500610351563 45.177497863769531 44.099998474121094 42.792499542236328 41.212501525878906 39.729999542236328 38.419998168945313 37.139999389648437 35.949996948242187 34.900001525878906 33.840000152587891 32.862499237060547 32.002498626708984 30.972499847412109 30.135000228881836 29.4375 28.654998779296875 27.880001068115234 26.972499847412109 25.952499389648437 25.045000076293945 24.152500152587891 23.345001220703125 22.75 22.047500610351563 20.415000915527344 19.277500152587891 18.047500610351562 16.857500076293945 15.71250057220459 14.539999961853027 13.482500076293945 12.512499809265137 11.667499542236328 10.960000038146973 10.162500381469727 9.3450002670288086 8.5625 8.0699996948242187 7.372499942779541 6.9600000381469727 6.3575000762939453 5.9149999618530273 5.25 4.630000114440918 4.0875000953674316 2.192500114440918 1.8450000286102295 1.5099999904632568 1.7450000047683716 1.3700000047683716 1.3250000476837158 1.3049999475479126 1.2425000667572021 1.3374999761581421 1.3324999809265137 1.3400000333786011 0.99500000476837158 1.3575000762939453 1.2599999904632568 1.0699999332427979 1.3374999761581421 1.4500000476837158 1.7174999713897705 1.7649999856948853 1.9225000143051147 2.2249999046325684 2.2425000667572021 3.1075000762939453 3.4524998664855957 6.179999828338623 6.7624998092651367 7.4674997329711914 8.0900001525878906 9 10.072500228881836 11.279999732971191 12.427499771118164 13.4375 14.457500457763672
95.75250244140625 95.012496948242188 94.12750244140625 93.1875 92.242500305175781 91.25 90.217498779296875 88.354995727539062 86.87249755859375 84.87249755859375 81.805000305175781 77.767501831054687 73.229995727539062 68.457496643066406 63.93499755859375 59.642501831054688 55.367500305175781 51.194999694824219 47.387500762939453 43.787498474121094 41.242500305175781 39.082500457763672 37.447502136230469 35.967498779296875 34.722499847412109 33.650001525878906 31.182498931884766 31.389999389648438 31.462499618530273 31.447500228881836 31.412500381469727 32.680000305175781 33.462501525878906 33.709999084472656 34.525001525878906 35.922500610351563 37.584999084472656 39.534999847412109 41.700000762939453 44.25250244140625 47.119998931884766 50.294998168945313 53.744998931884766 56.732498168945313 58.659999847412109 60.002498626708984 60.417499542236328 60.330001831054688 59.919998168945313 59.279998779296875 58.547500610351562 57.729999542236328 56.909999847412109 55.900001525878906 54.852500915527344 53.87750244140625 52.790000915527344 51.510002136230469 48.972499847412109 45.332500457763672 41.120002746582031 37.180000305175781 34.459999084472656 32.967498779296875 34.404998779296875 36.612499237060547 39.657501220703125 43.270000457763672 46.947498321533203 50.147499084472656 52.517501831054688 53.865001678466797 54.397499084472656 54.465000152587891 54.255001068115234 53.784999847412109 53.174999237060547 52.3125 51.227500915527344 50.007499694824219 48.432498931884766 46.742500305175781 45.207500457763672 43.354999542236328 42.117500305175781 40.584999084472656 39.104999542236328 37.697502136230469 36.287498474121094 35.104999542236328 34.052501678466797 32.927497863769531 31.977499008178711 31.139999389648437 30.282501220703125 29.329999923706055 28.494998931884766 27.622499465942383 26.6875 25.807500839233398 24.852499008178711 23.904998779296875 23.097499847412109 22.329999923706055 21.739999771118164 20.612499237060547 19.292499542236328 18.360000610351563 17.315000534057617 16.385000228881836 15.357500076293945 14.25 13.112500190734863 12.220000267028809 11.507499694824219 10.742500305175781 9.9674997329711914 9.2875003814697266 8.619999885559082 8.067500114440918 7.3899998664855957 6.9250001907348633 5.9674997329711914 5.1024999618530273 4.315000057220459 3.5525000095367432 3.1100001335144043 2.2100000381469727 1.4774999618530273 2.375 3.0399999618530273 1.8875000476837158 1.2774999141693115 1.2774999141693115 1.3975000381469727 1.252500057220459 1.1775000095367432 1.127500057220459 1.3849999904632568 1.2949999570846558 1.3075000047683716 1.3500000238418579 1.6375000476837158 1.2899999618530273 1.4850000143051147 1.7649999856948853 2.127500057220459 2.0174999237060547 2.7174999713897705 3.5199999809265137 5.0725002288818359 6.5974998474121094 7.1424999237060547 7.929999828338623 8.7674999237060547 9.3900003433227539 10.579999923706055 11.837499618530273 12.997499465942383 14 15.027500152587891
95.167495727539063 94.5625 93.75250244140625 92.760002136230469 91.925003051757813 90.955001831054687 89.18499755859375 87.87750244140625 86.150001525878906 83.7449951171875 80.014999389648437 75.464996337890625 70.972503662109375 66.604995727539063 62.470001220703125 58.369998931884766 54.047500610351562 49.935001373291016 46.229999542236328 43.034999847412109 40.194999694824219 38.022499084472656 36.510002136230469 35.119998931884766 33.889999389648438 32.612503051757813 32.200000762939453 32.935001373291016 33.064998626708984 33.197502136230469 33.610000610351563 34.329998016357422 34.985000610351563 35.944999694824219 37.125 38.705001831054688 40.62750244140625 42.607501983642578 44.717498779296875 47.12249755859375 50.407501220703125 53.264999389648438 56.207500457763672 58.722499847412109 60.607501983642578 61.547500610351563 61.777500152587891 61.447502136230469 60.75 59.847499847412109 58.847499847412109 57.892501831054688 56.885002136230469 55.742500305175781 54.604999542236328 53.452499389648437 52.110000610351563 50.367500305175781 47.544998168945313 44.174999237060547 40.244998931884766 36.87750244140625 34.172500610351562 34.157501220703125 35.627498626708984 38.104999542236328 41.277500152587891 44.882499694824219 48.459999084472656 51.485000610351562 53.599998474121094 54.497501373291016 54.715000152587891 54.537498474121094 54.097499847412109 53.472499847412109 52.697502136230469 51.667499542236328 50.452499389648438 48.957500457763672 47.540000915527344 45.654998779296875 43.972499847412109 42.777500152587891 41.5 40.032501220703125 38.549999237060547 37.242500305175781 35.720001220703125 34.422500610351562 33.447498321533203 32.380001068115234 31.319999694824219 30.417499542236328 29.505001068115234 28.489999771118164 27.592500686645508 26.639999389648437 25.595001220703125 24.619998931884766 23.645000457763672 22.742500305175781 21.994998931884766 21.297500610351563 20.479999542236328 19.487499237060547 18.395000457763672 17.682498931884766 16.729999542236328 15.492500305175781 14.230000495910645 13.164999961853027 12.520000457763672 11.8125 11.145000457763672 10.670000076293945 9.9799995422363281 9.2974996566772461 8.7024993896484375 8.0925006866455078 7.179999828338623 6.3499999046325684 5.8599996566772461 5.247499942779541 4.7674999237060547 4.1500000953674316 2.8499999046325684 2.4574999809265137 2.2100000381469727 4 4.1050000190734863 3.8949999809265137 1.7699999809265137 1.4674999713897705 1.4275000095367432 1.3550000190734863 1.3475000858306885 1.2899999618530273 1.3524999618530273 1.3575000762939453 1.2874999046325684 1.3049999475479126 1.5174999237060547 1.3274999856948853 1.2625000476837158 1.3675000667572021 1.8875000476837158 2.8824999332427979 4.0475001335144043 4.0749998092651367 6.3949999809265137 7.0500001907348633 7.7300000190734863 8.5174999237060547 9.3549995422363281 10.157500267028809 10.897500038146973 12.147500038146973 13.305000305175781 14.454999923706055 15.449999809265137
94.449996948242188 93.952499389648438 93.194999694824219 92.512504577636719 91.262496948242188 89.930000305175781 88.660003662109375 87.042495727539063 85.077499389648437 82.012496948242188 77.722503662109375 73.1875 68.660003662109375 64.430000305175781 60.544998168945313 56.332496643066406 52.042499542236328 48.264999389648438 44.81500244140625 42.082500457763672 39.694999694824219 37.485000610351563 35.792499542236328 34.557498931884766 33.00250244140625 33.215000152587891 34.080001831054687 35.029998779296875 34.782501220703125 34.227500915527344 35.220001220703125 36.119998931884766 37.19000244140625 38.75250244140625 40.340000152587891 41.864997863769531 43.602500915527344 45.470001220703125 47.525001525878906 50.744998931884766 54.139999389648437 57.537498474121094 60.177497863769531 61.702499389648438 62.444999694824219 62.979999542236328 62.947502136230469 62.472499847412109 61.542499542236328 60.430000305175781 59.284999847412109 58.177501678466797 57.025001525878906 55.817501068115234 54.532501220703125 53.012500762939453 51.525001525878906 49.217498779296875 46.242500305175781 42.852500915527344 39.30999755859375 36.777500152587891 34.05999755859375 35.197502136230469 36.985000610351563 39.662498474121094 42.924999237060547 46.520000457763672 49.985000610351563 52.792499542236328 54.555000305175781 55.290000915527344 55.150001525878906 54.790000915527344 54.165000915527344 53.419998168945313 52.494998931884766 51.327499389648438 50.017501831054688 48.084999084472656 46.744998931884766 45.340000152587891 44.364997863769531 42.244998931884766 40.982498168945313 39.540000915527344 38.159999847412109 36.895000457763672 35.407501220703125 34.202499389648438 33 31.797500610351563 30.764999389648438 29.802499771118164 28.814998626708984 27.872499465942383 27.002500534057617 25.982500076293945 24.840000152587891 23.840000152587891 22.829999923706055 21.9375 21.170000076293945 20.514999389648438 19.777500152587891 18.887500762939453 17.832500457763672 17.097499847412109 16.182498931884766 14.845000267028809 13.729999542236328 12.772500038146973 12.032500267028809 11.452499389648438 10.887499809265137 10.342499732971191 9.6674995422363281 9.0275001525878906 8.4375 7.682499885559082 7.1399998664855957 6.5124998092651367 6.0399999618530273 5.2849998474121094 4.4849996566772461 3.4625000953674316 3.1024999618530273 3.7999999523162842 4.1100001335144043 4.125 4.8499999046325684 4.380000114440918 3.9774999618530273 2.0350000858306885 1.7774999141693115 1.3624999523162842 1.4024999141693115 1.2000000476837158 1.4099999666213989 1.4474999904632568 1.3025000095367432 1.3700000047683716 1.3049999475479126 1.4325000047683716 1.372499942779541 1.6749999523162842 1.934999942779541 4.0475001335144043 4.9375 5.4524998664855957 7.2074999809265137 7.8324999809265137 8.505000114440918 9.2174997329711914 9.994999885559082 10.767499923706055 11.539999961853027 12.210000038146973 13.487500190734863 14.735000610351563 15.862499237060547
93.862503051757813 93.417495727539063 92.889999389648437 91.44000244140625 90.537498474121094 89.382499694824219 87.902496337890625 86.214996337890625 83.785003662109375 80.077499389648438 75.464996337890625 70.75250244140625 66.322502136230469 62.147499084472656 58.107498168945313 53.93499755859375 50.215000152587891 46.864997863769531 44.375 42.272499084472656 40.117500305175781 37.847499847412109 36.072498321533203 34.44000244140625 34.549999237060547 34.912498474121094 36.237499237060547 36.447502136230469 36.517501831054687 36.332500457763672 37.027500152587891 38.277500152587891 39.724998474121094 41.360000610351562 43.330001831054688 44.752498626708984 47.62750244140625 50.387500762939453 52.972499847412109 55.532501220703125 58.299999237060547 61.0625 62.985000610351563 63.685001373291016 63.94000244140625 64.067497253417969 63.805000305175781 63.222499847412109 62.282501220703125 61.055000305175781 59.822502136230469 58.567501068115234 57.260002136230469 55.974998474121094 54.647499084472656 52.895000457763672 51.017501831054687 48.384998321533203 45.237499237060547 41.807498931884766 38.602500915527344 35.602500915527344 35.06500244140625 36.334999084472656 38.465000152587891 41.319999694824219 44.597499847412109 48.215000152587891 51.537498474121094 54.075000762939453 55.297500610351562 55.617500305175781 55.422500610351562 54.990001678466797 54.340000152587891 53.489997863769531 52.485000610351562 51.005001068115234 49.510002136230469 48.067501068115234 46.977500915527344 45.625 44.262500762939453 42.830001831054687 40.694999694824219 39.227500915527344 37.872501373291016 36.549999237060547 35.350002288818359 34.087501525878906 32.842498779296875 31.659999847412109 30.569999694824219 29.652500152587891 28.602500915527344 27.5625 26.534999847412109 25.274999618530273 24.017499923706055 23.145000457763672 22.027500152587891 21.264999389648438 20.497499465942383 19.692501068115234 18.899999618530273 17.982500076293945 17.147499084472656 16.444999694824219 15.524999618530273 14.625 13.640000343322754 12.819999694824219 11.907500267028809 11.149999618530273 10.602499961853027 10.060000419616699 9.5825004577636719 8.9400005340576172 8.3449993133544922 7.7750000953674316 7.242499828338623 6.5875000953674316 5.997499942779541 4.9524998664855957 3.6974999904632568 4.5225000381469727 4.7200002670288086 4.6700000762939453 4.5425000190734863 4.2925000190734863 4.4524998664855957 4.4700002670288086 3.8924999237060547 2.4474999904632568 2.1775000095367432 1.6375000476837158 1.3675000667572021 1.3875000476837158 1.3375000953674316 1.3450000286102295 1.3875000476837158 1.3400000333786011 1.3999999761581421 1.5750000476837158 1.5049999952316284 1.9724999666213989 3.4175000190734863 5.3975000381469727 6.0550003051757813 6.7350001335144043 8.1875 8.8024997711181641 9.3649997711181641 9.932499885559082 10.664999961853027 11.420000076293945 12.197500228881836 12.935000419616699 13.567500114440918 14.934999465942383 16.125
93.389999389648437 92.964996337890625 91.760002136230469 91.077499389648438 89.962501525878906 88.62249755859375 87.032501220703125 85.092498779296875 82.169998168945313 78.132499694824219 73.37249755859375 68.682502746582031 64.237503051757812 59.517501831054687 55.665000915527344 52.142498016357422 48.985000610351563 46.772499084472656 45.084999084472656 43.307498931884766 41.317501068115234 38.872501373291016 36.845001220703125 36.025001525878906 36.372501373291016 36.625 37.327499389648438 37.845001220703125 38.162502288818359 38.402500152587891 39.165000915527344 40.732498168945313 42.314998626708984 44.44000244140625 47.412498474121094 49.625 51.720001220703125 54.349998474121094 57.444999694824219 59.982498168945312 62.25250244140625 64.724998474121094 65.680000305175781 65.779998779296875 65.535003662109375 65.262496948242188 64.775001525878906 64.050003051757813 63.00250244140625 61.802501678466797 60.514999389648438 59.142501831054687 57.712501525878906 56.354999542236328 54.674999237060547 52.864997863769531 50.639999389648438 47.887496948242188 44.642501831054687 41.127498626708984 38.220001220703125 35.022499084472656 36.029998779296875 37.577499389648438 40.014999389648438 42.987499237060547 46.347499847412109 49.950000762939453 52.982498168945313 54.979999542236328 55.677497863769531 55.877498626708984 55.697498321533203 55.232498168945313 54.552497863769531 53.635002136230469 52.557498931884766 51.132499694824219 49.944999694824219 48.197498321533203 47.077499389648438 45.587501525878906 44.075000762939453 42.630001068115234 40.327499389648438 38.80999755859375 37.654998779296875 36.520000457763672 35.357498168945313 34.192497253417969 32.80999755859375 31.454999923706055 30.704999923706055 29.567499160766602 28.0625 26.770000457763672 25.637500762939453 24.510000228881836 23.494998931884766 22.430000305175781 21.067501068115234 20.110000610351563 19.600000381469727 18.817499160766602 18.100000381469727 17.375 16.650001525878906 15.982500076293945 15.157500267028809 14.427499771118164 13.600000381469727 12.789999961853027 12.052499771118164 11.1875 10.645000457763672 10.037500381469727 9.3999996185302734 8.9050006866455078 8.4025001525878906 7.8524999618530273 6.5749998092651367 5.8374996185302734 4.8524999618530273 5.567500114440918 5.4475002288818359 5.317500114440918 5.2825002670288086 5.067500114440918 4.7325000762939453 4.507500171661377 4.0799999237060547 4.2674999237060547 3.5149998664855957 2.7300000190734863 2.0799999237060547 1.5349999666213989 1.4300000667572021 1.2300000190734863 1.3125 1.6075000762939453 1.2999999523162842 1.2524999380111694 1.4600000381469727 1.6649999618530273 2.5749998092651367 4.3575000762939453 5.2150001525878906 6.752500057220459 7.3025002479553223 8.125 9.2899999618530273 9.817500114440918 10.257499694824219 10.782500267028809 11.439999580383301 12.104999542236328 12.857500076293945 13.677499771118164 14.462499618530273 15.1875 16.340000152587891
92.720001220703125 91.915000915527344 91.342498779296875 90.480003356933594 89.31500244140625 87.847503662109375 86.114997863769531 83.547500610351562 80.0050048828125 75.790000915527344 71.339996337890625 66.767501831054688 61.977500915527344 57.659999847412109 54.180000305175781 51.365001678466797 49.384998321533203 47.917499542236328 46.599998474121094 45.154998779296875 43.215000152587891 40.912498474121094 39.032501220703125 37.512500762939453 38.432502746582031 38.549999237060547 39 39.642501831054688 40.067501068115234 40.819999694824219 41.680000305175781 44.987499237060547 47.595001220703125 49.752498626708984 51.599998474121094 53.612499237060547 55.872501373291016 58.360000610351563 60.957500457763672 63.659999847412109 66.257499694824219 68.302505493164063 68.805000305175781 68.467498779296875 67.762496948242187 67.305000305175781 66.520004272460938 65.522499084472656 64.297500610351562 62.924999237060547 61.43499755859375 59.959999084472656 58.402500152587891 56.845001220703125 54.907501220703125 52.880001068115234 50.510002136230469 47.625 44.222499847412109 40.715000152587891 37.752498626708984 35.790000915527344 37.029998779296875 38.822502136230469 41.362499237060547 44.457500457763672 47.889999389648437 51.125 53.849998474121094 55.507499694824219 56.125 56.207500457763672 55.942501068115234 55.479999542236328 54.799999237060547 53.799999237060547 52.575000762939453 51.330001831054687 50.044998168945313 48.135002136230469 46.987499237060547 45.442501068115234 43.87750244140625 42.522499084472656 40.5625 38.982501983642578 37.759998321533203 36.645000457763672 35.422500610351563 34.135002136230469 33.00250244140625 31.619998931884766 30.717498779296875 29.489999771118164 27.979999542236328 26.617500305175781 25.322500228881836 24.329999923706055 23.260000228881836 22.072500228881836 21.020000457763672 20.155000686645508 19.400001525878906 18.577499389648438 17.819999694824219 17.154998779296875 16.434999465942383 15.692500114440918 14.877499580383301 14.324999809265137 13.582500457763672 12.800000190734863 12.102499961853027 11.462499618530273 10.835000038146973 10.172500610351562 9.7325000762939453 9.1700000762939453 8.5799999237060547 8.1774997711181641 7.1999998092651367 6.6175003051757812 6.4875001907348633 6.2150001525878906 5.9849996566772461 5.7049999237060547 5.4724998474121094 5.2150001525878906 4.8025002479553223 4.5875000953674316 4.0875000953674316 3.9100000858306885 3.3975000381469727 2.8925001621246338 2.0250000953674316 1.7300000190734863 1.6349999904632568 1.2575000524520874 1.2599999904632568 1.2675000429153442 1.7074999809265137 2.8050000667572021 3.807499885559082 3.4749999046325684 4.502500057220459 5.6599998474121094 7.1774997711181641 7.9749999046325684 8.3524999618530273 9.0325002670288086 10.272500038146973 10.697500228881836 11.204999923706055 11.684999465942383 12.260000228881836 12.927499771118164 13.532500267028809 14.272500038146973 15.072500228881836 15.847499847412109 16.442499160766602
91.917495727539063 91.379997253417969 90.50250244140625 89.589996337890625 88.432502746582031 87.072502136230469 84.93499755859375 81.660003662109375 77.597503662109375 73.384994506835938 69.114997863769531 64.404998779296875 59.939998626708984 56.510002136230469 55.130001068115234 52.145000457763672 50.770000457763672 49.680000305175781 48.739997863769531 47.37249755859375 45.215000152587891 42.755001068115234 40.770000457763672 40.332500457763672 40.25 40.095001220703125 40.522499084472656 42.075000762939453 43.099998474121094 45.380001068115234 46.797500610351563 49.332500457763672 51.607498168945313 54.055000305175781 56.049999237060547 58.145000457763672 60.419998168945313 62.880001068115234 65.319999694824219 67.912498474121094 70.272499084472656 71.665000915527344 71.947494506835938 71.362503051757812 70.569999694824219 69.93499755859375 69.014999389648438 67.732498168945313 66.305000305175781 64.792495727539063 63.022499084472656 61.192497253417969 59.447502136230469 57.450000762939453 55.31500244140625 52.992500305175781 50.452499389648438 47.375 43.977500915527344 40.552501678466797 36.882499694824219 36.135002136230469 37.922500610351563 39.869998931884766 42.597499847412109 45.782501220703125 49.159999847412109 52.267501831054688 54.752498626708984 56.275001525878906 56.827499389648438 56.772499084472656 56.37249755859375 55.722499847412109 55.017501831054687 54.017501831054688 52.847499847412109 51.590000152587891 50.415000915527344 48.130001068115234 46.907501220703125 45.412498474121094 43.887500762939453 42.599998474121094 41.462497711181641 39.582500457763672 37.827499389648437 36.799999237060547 35.544998168945313 34.262500762939453 33.029998779296875 31.932498931884766 30.667499542236328 29.527500152587891 28.202499389648437 26.725000381469727 25.412500381469727 24.360000610351563 23.329999923706055 22.302499771118164 21.307498931884766 20.477500915527344 19.600000381469727 18.655000686645508 17.799999237060547 17.087499618530273 16.462499618530273 15.725000381469727 15.069999694824219 14.232500076293945 13.422499656677246 12.817500114440918 12.284999847412109 11.649999618530273 11.002500534057617 10.494999885559082 10.069999694824219 9.4375 8.9549999237060547 8.3549995422363281 7.7975001335144043 7.182499885559082 7.0300002098083496 6.570000171661377 6.192500114440918 5.8225002288818359 5.5375003814697266 5.1999998092651367 4.8649997711181641 4.5250000953674316 4.1424999237060547 3.5425000190734863 3.0974998474121094 2.2825000286102295 2.0899999141693115 1.6575000286102295 1.3600000143051147 1.3474999666213989 1.6324999332427979 3.0850000381469727 3.7699999809265137 4.0550003051757812 4.2300000190734863 4.4800000190734863 5.0225000381469727 6.2925000190734863 8.2749996185302734 9.2624998092651367 9.8050003051757813 10.582500457763672 10.967499732971191 11.404999732971191 11.942500114440918 12.654999732971191 13.197500228881836 13.770000457763672 14.247500419616699 14.902500152587891 15.644999504089355 16.409999847412109 17.090000152587891
91.212501525878906 90.322494506835938 89.422500610351563 88.477500915527344 87.267501831054687 85.294998168945313 82.605003356933594 79.167503356933594 74.99749755859375 70.80999755859375 66.542495727539063 62.092498779296875 58.974998474121094 56.807498931884766 55.042499542236328 53.697502136230469 52.712501525878906 51.857498168945313 50.979999542236328 49.125 46.682502746582031 44.305000305175781 42.1875 42.034999847412109 42.227500915527344 42.125 43.452499389648438 44.382499694824219 45.404998779296875 47.3125 49.992500305175781 52.757499694824219 55.444999694824219 57.977500915527344 60.169998168945312 62.422500610351563 64.797500610351562 67.172500610351563 69.6875 72.222503662109375 74.099998474121094 74.989997863769531 75.057502746582031 74.470001220703125 73.584999084472656 72.867500305175781 71.830001831054687 70.474998474121094 68.947502136230469 67.274993896484375 65.332504272460938 63.194999694824219 61.020000457763672 58.345001220703125 55.897499084472656 53.297500610351563 50.455001831054687 47.307498931884766 43.947502136230469 40.775001525878906 37.397499084472656 37.169998168945313 38.794998168945312 40.880001068115234 43.697498321533203 47.087501525878906 50.474998474121094 53.595001220703125 55.974998474121094 57.352500915527344 57.729999542236328 57.452499389648437 57.025001525878906 56.534999847412109 55.779998779296875 54.862499237060547 53.75 52.397499084472656 50.967498779296875 49.99749755859375 47.202499389648438 45.840000152587891 44.370002746582031 42.985000610351563 41.787498474121094 39.647499084472656 38.139999389648438 36.997501373291016 35.795001983642578 34.564998626708984 33.389999389648437 32.277500152587891 31.139999389648437 30.069999694824219 28.857500076293945 27.264999389648438 26.027500152587891 25 23.930000305175781 22.927499771118164 21.862499237060547 20.940000534057617 19.969999313354492 18.927499771118164 17.932498931884766 17.110000610351563 16.424999237060547 15.719999313354492 15.092499732971191 14.210000038146973 13.585000038146973 13.029999732971191 12.25 11.577499389648437 11.010000228881836 10.590000152587891 10.164999961853027 9.8100004196166992 9.3474998474121094 8.6574993133544922 8.1599998474121094 7.5199999809265137 7.2799997329711914 6.8625001907348633 6.3899998664855957 6.005000114440918 5.6050000190734863 5.184999942779541 4.8524999618530273 4.5475001335144043 4.190000057220459 3.4500000476837158 2.5174999237060547 1.9774999618530273 1.6950000524520874 1.6749999523162842 1.3200000524520874 1.8624999523162842 3.4700000286102295 3.5225000381469727 4.0900001525878906 4.3850002288818359 4.75 5.309999942779541 5.875 7.0500001907348633 9.125 10.067500114440918 10.590000152587891 11.654999732971191 12.039999961853027 12.6875 13.032500267028809 13.427499771118164 14.152500152587891 14.600000381469727 15 15.557499885559082 16.130001068115234 16.755001068115234 17.309999465942383
90.0625 89.097503662109375 88.037498474121094 86.875 84.99749755859375 82.404998779296875 79.212501525878906 75.8125 71.995002746582031 68.097503662109375 64.199996948242188 61.639999389648438 59.735000610351563 57.972499847412109 56.735000610351563 55.822502136230469 55.029998779296875 53.949996948242188 52.307498931884766 50.06500244140625 47.737499237060547 45.592498779296875 43.75250244140625 44.407501220703125 44.342498779296875 44.147499084472656 45.455001831054688 46.472499847412109 47.787498474121094 49.955001831054687 52.817501068115234 55.825000762939453 59.067501068115234 61.847499847412109 64.235000610351563 66.610000610351563 69.050003051757813 71.407501220703125 73.979995727539063 76.382499694824219 78.029998779296875 78.519996643066406 78.259994506835938 77.612503051757812 76.667495727539063 75.847503662109375 74.632499694824219 73.207504272460938 71.5574951171875 69.824996948242187 67.922500610351562 65.584999084472656 62.849998474121094 59.705001831054687 56.742500305175781 53.617500305175781 50.477500915527344 47.232498168945313 43.982501983642578 40.837501525878906 38.162498474121094 37.970001220703125 39.652500152587891 41.759998321533203 44.787498474121094 48.217498779296875 51.504997253417969 54.697502136230469 57.602500915527344 58.537498474121094 58.777500152587891 58.352500915527344 57.967498779296875 57.56500244140625 56.817501068115234 55.887500762939453 54.802497863769531 53.415000915527344 51.857501983642578 50.419998168945313 47.792499542236328 46.654998779296875 45.129997253417969 43.652500152587891 42.330001831054688 40.830001831054687 38.889999389648438 37.270000457763672 36.242500305175781 35.032501220703125 33.807498931884766 32.657501220703125 31.557498931884766 30.475000381469727 29.412500381469727 28.384998321533203 27.772499084472656 25.465000152587891 24.537500381469727 23.549999237060547 22.555000305175781 21.579999923706055 20.474998474121094 19.427499771118164 18.257499694824219 17.3125 16.444999694824219 15.819999694824219 15.227499961853027 14.399999618530273 13.889999389648438 13.257499694824219 12.295000076293945 11.635000228881836 11.104999542236328 10.565000534057617 10.260000228881836 9.9050006866455078 9.4174995422363281 8.8725004196166992 8.3575000762939453 7.7399997711181641 7.5074996948242187 7.0124998092651367 6.5325002670288086 6.119999885559082 5.690000057220459 5.257500171661377 5.0149998664855957 4.684999942779541 4.2650003433227539 3.8224999904632568 3.119999885559082 2.3499999046325684 1.7949999570846558 1.8324999809265137 2.0550000667572021 3.3600001335144043 3.7425000667572021 3.9600000381469727 4.4800000190734863 4.7899999618530273 5.3649997711181641 5.994999885559082 6.6800003051757813 7.8424997329711914 9.3225002288818359 10.582500457763672 10.947500228881836 12.192500114440918 12.385000228881836 12.692500114440918 13.272500038146973 13.882499694824219 14.369999885559082 15.274999618530273 16.192499160766602 17.375 17.829999923706055 17.942501068115234 18.077499389648437
88.792495727539063 87.345001220703125 86.080001831054687 84.227500915527344 81.845001220703125 79.007499694824219 75.819999694824219 72.62249755859375 69.389999389648438 66.62750244140625 64.447502136230469 62.662498474121094 61.110000610351563 59.987503051757813 59.145000457763672 58.322502136230469 57.314998626708984 55.529998779296875 53.262496948242188 50.885002136230469 48.669998168945313 46.712501525878906 46.067501068115234 46.242500305175781 46.904998779296875 46.264999389648438 47.30999755859375 48.577499389648438 49.959999084472656 52.154998779296875 55.439998626708984 58.717498779296875 62.125 65.177505493164063 67.947502136230469 70.479995727539062 73.175003051757813 75.717498779296875 78.205001831054688 80.207496643066406 81.305000305175781 81.43499755859375 81.139999389648438 80.5675048828125 79.694999694824219 78.8175048828125 77.457496643066406 75.824996948242188 74.025001525878906 72.144996643066406 70.165000915527344 67.80999755859375 64.760002136230469 61.347499847412109 57.639999389648437 54.042499542236328 50.645000457763672 47.354999542236328 44.284999847412109 41.114997863769531 38.579998016357422 38.760002136230469 40.032501220703125 42.622501373291016 45.669998168945313 49.792499542236328 53.095001220703125 56.215000152587891 58.575000762939453 59.692497253417969 59.867500305175781 59.477500915527344 59.010002136230469 58.650001525878906 57.895000457763672 57.025001525878906 56 54.667499542236328 53.150001525878906 51.619998931884766 49.257499694824219 47.657501220703125 46.132499694824219 44.525001525878906 43.014999389648438 41.672500610351563 39.397499084472656 37.650001525878906 36.694999694824219 35.527500152587891 34.340000152587891 33.180000305175781 32.052497863769531 30.952499389648438 29.854999542236328 28.850000381469727 28.165000915527344 26.472499847412109 25.212499618530273 23.767499923706055 23.174999237060547 22.172500610351562 21.147499084472656 19.950000762939453 18.822500228881836 17.737499237060547 16.690000534057617 16.047500610351563 15.295000076293945 14.510000228881836 14.139999389648438 13.602499961853027 12.635000228881836 11.680000305175781 11.047500610351563 10.547499656677246 10.220000267028809 9.8400001525878906 9.494999885559082 9.0074996948242187 8.4974994659423828 7.9049997329711914 7.5275001525878906 7.0500001907348633 6.5900001525878906 6.2574996948242187 5.9049997329711914 5.6449999809265137 5.1999998092651367 4.7174997329711914 4.2975001335144043 3.9000000953674316 3.5149998664855957 2.6575000286102295 2.2350001335144043 2.1974999904632568 3.3675000667572021 3.6600000858306885 4.2800002098083496 4.3275003433227539 4.9225001335144043 5.432499885559082 5.942500114440918 6.6125001907348633 7.4075002670288086 8.3100004196166992 9.2875003814697266 12.127500534057617 12.112500190734863 12.517499923706055 12.569999694824219 12.862500190734863 13.074999809265137 15.412500381469727 15.819999694824219 16.690000534057617 17.380001068115234 17.590000152587891 17.889999389648438 18.075000762939453 18.235000610351563
86.892501831054688 84.9425048828125 83.022499084472656 80.852500915527344 78.857498168945313 76.535003662109375 73.942497253417969 71.389999389648437 69.727500915527344 67.802497863769531 66.287498474121094 64.817497253417969 63.677501678466797 62.807498931884766 62.040000915527344 60.967498779296875 59.259998321533203 56.962501525878906 54.419998168945312 51.94000244140625 49.792499542236328 48.229999542236328 48.904998779296875 48.465000152587891 48.244998931884766 48.485000610351562 49.770000457763672 51.007499694824219 52.272499084472656 54.442497253417969 57.760002136230469 61.549999237060547 65.0625 68.349998474121094 71.5 74.387496948242188 77.227500915527344 79.8175048828125 81.904998779296875 83.242500305175781 83.979995727539062 84.12750244140625 83.917495727539063 83.264999389648438 82.470001220703125 81.637496948242187 80.19000244140625 78.322502136230469 76.370002746582031 74.297500610351563 72.165000915527344 69.629997253417969 66.382499694824219 62.732498168945313 58.694999694824219 54.75250244140625 51.165000915527344 47.907501220703125 44.947502136230469 42.279998779296875 39.965000152587891 39.185001373291016 41.042499542236328 43.537498474121094 47.152500152587891 50.767498016357422 54.557498931884766 58.005001068115234 60.235000610351563 61.162498474121094 61.229999542236328 60.74749755859375 60.215000152587891 59.720001220703125 58.985000610351563 58.119998931884766 57.180000305175781 55.992500305175781 54.622501373291016 53.069999694824219 51.632499694824219 48.897499084472656 47.314998626708984 45.610000610351562 43.957500457763672 42.402500152587891 40.107498168945313 38.340000152587891 37.310001373291016 36.182498931884766 34.967498779296875 33.74749755859375 32.587501525878906 31.442501068115234 30.354999542236328 29.409999847412109 28.457500457763672 26.887500762939453 25.719999313354492 24.767499923706055 23.610000610351563 22.424999237060547 21.549999237060547 20.540000915527344 19.375 18.207500457763672 17.287500381469727 16.397499084472656 15.502500534057617 14.817500114440918 14.369999885559082 13.840000152587891 12.854999542236328 11.712499618530273 11.244999885559082 10.699999809265137 10.244999885559082 9.8575000762939453 9.4699993133544922 8.9925003051757813 8.6475000381469727 7.9075002670288086 7.5174999237060547 7.2074999809265137 6.9250001907348633 6.5850000381469727 6.0900001525878906 5.5950002670288086 5.2399997711181641 4.8125 4.4124999046325684 4.0399999618530273 3.7574999332427979 3.1725001335144043 2.4650001525878906 2.434999942779541 3.2850000858306885 3.9375 4.4075002670288086 4.997499942779541 5.315000057220459 5.7875003814697266 6.2249999046325684 6.6700000762939453 6.9875001907348633 7.4774999618530273 9.1125001907348633 12.272500038146973 12.074999809265137 12.690000534057617 13.922500610351563 14.710000038146973 15.327499389648438 15.735000610351563 16.235000610351563 16.784999847412109 17.302499771118164 17.610000610351563 18.037500381469727 18.397499084472656 18.842498779296875
87.897499084472656 86.332504272460938 84.12750244140625 82.125 79.677497863769531 77.714996337890625 75.614997863769531 73.724998474121094 72.167495727539062 70.757499694824219 69.447502136230469 68.217498779296875 67.145004272460938 66.167495727539062 65.052497863769531 63.450000762939453 61.180000305175781 58.680000305175781 56.137500762939453 53.680000305175781 51.380001068115234 50.590000152587891 50.667499542236328 50.520000457763672 50.712501525878906 50.909999847412109 52.152500152587891 53.5 54.889999389648438 57.130001068115234 60.514999389648438 64.422500610351563 68.132499694824219 71.662498474121094 75.035003662109375 78.214996337890625 81.194999694824219 83.762496948242188 85.552505493164062 86.449996948242188 86.794998168945313 86.897499084472656 86.449996948242188 85.802497863769531 84.792495727539063 84.050003051757812 82.637496948242188 80.617500305175781 78.442497253417969 76.132499694824219 73.697494506835938 71.12750244140625 67.80999755859375 63.970001220703125 59.799999237060547 55.792499542236328 52.060001373291016 48.75 45.909999847412109 43.357498168945313 41.430000305175781 39.617500305175781 42.037498474121094 44.244998931884766 48.099998474121094 52.132499694824219 56.292499542236328 60.047500610351563 62.095001220703125 62.617500305175781 62.549999237060547 62.049999237060547 61.470001220703125 60.892501831054687 60.097499847412109 59.154998779296875 58.207500457763672 57.159999847412109 55.965000152587891 54.540000915527344 53.125 50.37249755859375 48.735000610351562 46.9375 45.119998931884766 43.362499237060547 41.892501831054687 39.5 37.939998626708984 36.805000305175781 35.492500305175781 34.327499389648438 33.154998779296875 32.097499847412109 31.007499694824219 29.882499694824219 28.909999847412109 27.462499618530273 26.347499847412109 25.254999160766602 24.219999313354492 23.057498931884766 21.857500076293945 20.722499847412109 19.697500228881836 18.642499923706055 17.795000076293945 16.852500915527344 15.920000076293945 15.215000152587891 14.617500305175781 13.942499160766602 13.027500152587891 12.029999732971191 11.302499771118164 10.764999389648438 10.364999771118164 9.8649997711181641 9.4224996566772461 8.8900003433227539 8.567500114440918 8.2875003814697266 7.6750001907348633 7.307499885559082 6.8350000381469727 6.4774999618530273 6.067500114440918 5.6500000953674316 5.3050003051757812 4.932499885559082 4.5875000953674316 4.2024998664855957 3.9250001907348633 3.554999828338623 2.684999942779541 2.494999885559082 3.9474999904632568 4.3024997711181641 4.7224998474121094 5.2975001335144043 5.367499828338623 5.2325000762939453 4.8874998092651367 5.7624998092651367 6.9650001525878906 8.1374998092651367 9.5225000381469727 10.737500190734863 11.550000190734863 13.217499732971191 14.489999771118164 15.710000038146973 16.520000457763672 17.530000686645508 18.217500686645508 18.602500915527344 19.010000228881836 19.232500076293945 19.540000915527344 19.595001220703125 19.774999618530273
89.834999084472656 88.615005493164063 87.332496643066406 85.207496643066406 83.035003662109375 81.220001220703125 79.337501525878906 77.384994506835938 75.87750244140625 74.569999694824219 73.319999694824219 72.05999755859375 70.787498474121094 69.417503356933594 67.81500244140625 65.770004272460938 63.369998931884766 60.869998931884766 58.487499237060547 56.119998931884766 54.694999694824219 53.682498931884766 53.060001373291016 52.982498168945313 52.837501525878906 53.43499755859375 54.497501373291016 55.947502136230469 57.597499847412109 59.732498168945313 62.977500915527344 67.040000915527344 71.099998474121094 74.922500610351563 78.532501220703125 82.080001831054687 85.110000610351562 87.410003662109375 88.75 89.462501525878906 89.514999389648438 89.25250244140625 88.639999389648438 87.764999389648438 86.6199951171875 85.737503051757813 84.235000610351563 82.235000610351563 79.995002746582031 77.547500610351563 74.849998474121094 71.964996337890625 68.709999084472656 64.977500915527344 60.895000457763672 56.962501525878906 53.297500610351563 49.944999694824219 47.072502136230469 44.482498168945313 42.544998168945313 41.402500152587891 42.674999237060547 45.180000305175781 48.6875 52.902500152587891 57.372501373291016 61.25 63.692501068115234 64.217498779296875 64.055000305175781 63.470001220703125 62.854999542236328 62.157501220703125 61.297500610351563 60.292499542236328 59.240001678466797 58.182498931884766 57.037498474121094 55.740001678466797 54.345001220703125 52.715000152587891 50.267498016357422 48.397499084472656 46.430000305175781 44.482498168945313 42.790000915527344 40.0625 38.955001831054688 38.090000152587891 36.267501831054688 34.93499755859375 33.924999237060547 32.694999694824219 31.610000610351563 30.557498931884766 29.584999084472656 28.170000076293945 26.9375 25.852500915527344 24.727500915527344 23.662498474121094 22.559999465942383 21.409999847412109 19.674999237060547 19.020000457763672 18.197500228881836 17.305000305175781 16.407499313354492 15.632499694824219 14.957500457763672 14.367500305175781 13.479999542236328 12.432499885559082 11.715000152587891 11.130000114440918 10.569999694824219 10.194999694824219 9.7950000762939453 9.2574996948242187 8.8125 8.2775001525878906 7.622499942779541 7.25 6.8324999809265137 6.4875001907348633 6.2174997329711914 5.8125 5.429999828338623 5.125 4.6750001907348633 4.2849998474121094 4.005000114440918 3.9000000953674316 3.0799999237060547 3.0900001525878906 4.005000114440918 4.7199997901916504 4.5850000381469727 4.0100002288818359 4.625 5.132500171661377 6.057499885559082 7.0250000953674316 7.622499942779541 8.6625003814697266 9.6424999237060547 10.614999771118164 12.579999923706055 13.204999923706055 14.819999694824219 15.747499465942383 16.635000228881836 17.459999084472656 18.379999160766602 18.682500839233398 19.194999694824219 19.397499084472656 19.715000152587891 19.832500457763672 20.005001068115234
90.925003051757813 90.0625 88.862503051757813 87.705001831054688 86.897499084472656 84.889999389648437 82.55999755859375 81.2550048828125 79.8125 78.532501220703125 77.242500305175781 75.855003356933594 74.19000244140625 72.44000244140625 70.442497253417969 68.197502136230469 65.824996948242187 63.474998474121094 61.167499542236328 58.832500457763672 57.297500610351563 56.020000457763672 55.702499389648437 55.324996948242188 55.167499542236328 55.537498474121094 56.592498779296875 58.402500152587891 60.452499389648438 62.672500610351563 65.62750244140625 69.360000610351563 73.660003662109375 77.782501220703125 81.970001220703125 85.732498168945313 88.555000305175781 90.199996948242188 91.139999389648437 91.62249755859375 91.5675048828125 91.160003662109375 90.479995727539063 89.5050048828125 88.199996948242188 87.00250244140625 85.389999389648437 83.480003356933594 81.212501525878906 78.702499389648438 75.68499755859375 72.540000915527344 69.357498168945312 65.772499084472656 61.967498779296875 58.294998168945313 54.722499847412109 51.364997863769531 48.422500610351563 45.720001220703125 43.880001068115234 42.632499694824219 43.305000305175781 45.674999237060547 48.987499237060547 53.080001831054687 57.607498168945313 61.805000305175781 65.047500610351563 66.042495727539063 65.802497863769531 65.1300048828125 64.410003662109375 63.547500610351563 62.610000610351563 61.494998931884766 60.400001525878906 59.240001678466797 58.044998168945313 56.739997863769531 55.345001220703125 53.952499389648438 51.5 49.895000457763672 47.957496643066406 45.904998779296875 43.915000915527344 41.544998168945313 39.739997863769531 38.650001525878906 37.739997863769531 35.825000762939453 34.619998931884766 33.470001220703125 32.317501068115234 31.197500228881836 30.229999542236328 28.934999465942383 27.649999618530273 26.447500228881836 25.399999618530273 24.147499084472656 23.007499694824219 21.742500305175781 20.364999771118164 19.352500915527344 18.382499694824219 17.522499084472656 16.692501068115234 15.907500267028809 15.189999580383301 14.555000305175781 14.060000419616699 13.010000228881836 12.104999542236328 11.652500152587891 11.102499961853027 10.577499389648438 9.9300003051757813 9.3675003051757812 8.7849998474121094 8.2474994659423828 7.7325000762939453 7.3275003433227539 6.932499885559082 6.5749998092651367 6.2699999809265137 5.815000057220459 5.4499998092651367 5.1100001335144043 4.815000057220459 4.4625000953674316 4.2649998664855957 4.1649999618530273 4.317500114440918 3.2925000190734863 4.0374999046325684 3.442500114440918 3.4275000095367432 3.8624999523162842 4.6700000762939453 5.8625001907348633 6.8524999618530273 7.5875000953674316 8.2699995040893555 9.0149993896484375 9.7924995422363281 11.667499542236328 12.715000152587891 13.104999542236328 14.527500152587891 15.612500190734863 16.200000762939453 16.852500915527344 17.542499542236328 18.092500686645508 18.594999313354492 19.139999389648438 19.587499618530273 20.010000228881836 20.242500305175781
91.529998779296875 91.007499694824219 90.3175048828125 89.540000915527344 88.729995727539063 87.932502746582031 87.082504272460938 84.900001525878906 83.507499694824219 82.194999694824219 80.787498474121094 79.132499694824219 77.205001831054687 75.169998168945313 73 70.672500610351563 68.397499084472656 66.152503967285156 63.895000457763672 61.592498779296875 59.694999694824219 58.247501373291016 57.805000305175781 57.430000305175781 57.242500305175781 57.994998931884766 59.162498474121094 60.917499542236328 63.047500610351563 65.275001525878906 68.152503967285156 71.904998779296875 76.260002136230469 80.864997863769531 85.177497863769531 88.845001220703125 90.99749755859375 92.305000305175781 93.107498168945313 93.349998474121094 93.18499755859375 92.657501220703125 91.830001831054687 90.884994506835938 89.444999694824219 88.074996948242188 86.425003051757813 84.584999084472656 82.349998474121094 79.607498168945313 76.514999389648438 73.089996337890625 70.055000305175781 66.574996948242188 63.110000610351563 59.737499237060547 56.279998779296875 52.912498474121094 49.902500152587891 47.194999694824219 45.330001831054687 43.667499542236328 44.012500762939453 45.974998474121094 49.007499694824219 52.799999237060547 57.209999084472656 61.944999694824219 65.849998474121094 67.819999694824219 67.707504272460938 66.904998779296875 66.027503967285156 64.9949951171875 63.977500915527344 62.8125 61.634998321533203 60.349998474121094 59.025001525878906 57.707500457763672 56.349998474121094 54.994998931884766 53.135002136230469 51.395000457763672 49.472499847412109 47.415000915527344 45.172500610351563 43.279998779296875 40.270000457763672 39.290000915527344 38.507499694824219 36.764999389648438 35.319999694824219 34.157501220703125 33.042499542236328 31.922500610351563 30.924999237060547 29.774999618530273 28.307498931884766 27.204999923706055 26.200000762939453 24.755001068115234 23.632499694824219 22.267499923706055 21.094999313354492 20.034999847412109 18.977499008178711 18.010000228881836 16.875 16.042499542236328 15.477499961853027 14.8125 14.255000114440918 12.805000305175781 12.452499389648438 11.897500038146973 11.345000267028809 10.6875 10.110000610351562 9.5025005340576172 8.9125003814697266 8.2725000381469727 7.6875 7.432499885559082 6.940000057220459 6.6050000190734863 6.3299999237060547 5.9025001525878906 5.619999885559082 5.2874999046325684 5.059999942779541 4.695000171661377 4.492499828338623 4.4574999809265137 3.877500057220459 3.3624999523162842 3.869999885559082 3.5099999904632568 3.7574999332427979 4.4250001907348633 4.8499999046325684 6.244999885559082 7.2950000762939453 7.8100004196166992 8.3374996185302734 8.7425003051757812 10.539999961853027 11.267499923706055 12.530000686645508 13.012499809265137 14.020000457763672 15.032500267028809 15.989999771118164 16.592498779296875 17.227500915527344 17.719999313354492 17.877498626708984 18.815000534057617 19.045000076293945 19.465000152587891 19.885000228881836
91.792503356933594 91.514999389648438 91.112503051757813 90.660003662109375 90.057502746582031 89.37750244140625 88.512496948242188 87.599998474121094 86.279998779296875 85.035003662109375 83.75250244140625 82.052497863769531 79.964996337890625 77.800003051757812 75.602493286132813 73.324996948242188 71.112503051757813 68.930000305175781 66.699996948242187 64.532501220703125 62.357498168945313 60.772499084472656 60.167499542236328 60.117500305175781 60.392501831054687 61.157501220703125 62.212501525878906 63.672500610351563 65.852500915527344 68.232498168945313 70.857498168945313 74.55999755859375 79.169998168945313 83.6824951171875 87.832504272460938 90.767501831054687 92.665000915527344 93.845001220703125 94.4949951171875 94.652496337890625 94.5 93.81500244140625 92.782501220703125 91.535003662109375 90.257499694824219 88.892501831054687 87.242500305175781 85.422500610351563 83.165000915527344 80.345001220703125 77.279998779296875 73.735000610351563 70.6875 67.404998779296875 64.277496337890625 61.125 58.112499237060547 54.849998474121094 51.887496948242188 49.014999389648437 47.014999389648438 45.205001831054688 45.172500610351563 46.462501525878906 49.069999694824219 52.514999389648438 56.857498168945312 61.674999237060547 66.047500610351562 68.907501220703125 69.319999694824219 68.665000915527344 67.730003356933594 66.507499694824219 65.324996948242187 64.125 62.832500457763672 61.512496948242187 60.139999389648438 58.755001068115234 57.342498779296875 55.880001068115234 54.447502136230469 52.557498931884766 51.007499694824219 48.994998931884766 46.595001220703125 44.362499237060547 42.345001220703125 39.744998931884766 38.892501831054688 37.62249755859375 35.959999084472656 34.770000457763672 33.680000305175781 32.567501068115234 31.482500076293945 30.465000152587891 28.975000381469727 27.895000457763672 26.619998931884766 24.902500152587891 24.010000228881836 22.642499923706055 21.212499618530273 20.135000228881836 19.040000915527344 18.042499542236328 17.264999389648438 15.704999923706055 15.600000381469727 15.092499732971191 12.942500114440918 7.0999999046325684 7.7074999809265137 10.005000114440918 11.604999542236328 11.020000457763672 10.354999542236328 9.7725000381469727 9.2224998474121094 8.6350002288818359 8.0325002670288086 7.4549999237060547 7.130000114440918 6.8324999809265137 6.5850000381469727 6.1400003433227539 5.755000114440918 5.4474997520446777 5.2899999618530273 4.622499942779541 4.2074999809265137 3.7849998474121094 3.6775000095367432 3.5275001525878906 3.9224998950958252 4.2224998474121094 4.5925002098083496 4.992499828338623 5.2699999809265137 6.2775001525878906 6.6499996185302734 7.7024998664855957 8.5900001525878906 9.3824996948242187 10.392499923706055 11.482500076293945 12.477499961853027 12.840000152587891 13.4375 14.744999885559082 15.364999771118164 16.104999542236328 16.597499847412109 17.215000152587891 17.630001068115234 18.204999923706055 18.512500762939453 19.174999237060547 19.569999694824219
91.87249755859375 91.739997863769531 91.449996948242188 91.114997863769531 90.727500915527344 90.225006103515625 89.592498779296875 88.822502136230469 88.087493896484375 87.107498168945313 85.697502136230469 84.430000305175781 82.572502136230469 80.417503356933594 78.297500610351563 76.182502746582031 73.992500305175781 71.785003662109375 69.617500305175781 67.830001831054687 65.410003662109375 63.590000152587891 62.732498168945313 62.68499755859375 63.282501220703125 64.110000610351562 65.50250244140625 67.004997253417969 69.00250244140625 71.342498779296875 74.095001220703125 77.574996948242188 81.955001831054687 86.352500915527344 89.764999389648437 92.120002746582031 93.839996337890625 94.957504272460938 95.50250244140625 95.55999755859375 95.215003967285156 94.485000610351562 93.422500610351563 92.072502136230469 90.819999694824219 89.485000610351563 87.8125 86.007499694824219 83.900001525878906 81.470001220703125 78.209999084472656 74.852500915527344 71.754997253417969 68.529998779296875 65.597503662109375 62.882499694824219 59.974998474121094 56.962501525878906 53.950000762939453 51.042499542236328 48.362499237060547 46.912498474121094 46.424999237060547 47.130001068115234 49.389999389648438 52.62249755859375 56.770000457763672 61.485000610351563 65.885002136230469 69.172500610351562 70.3125 69.875 69.007499694824219 67.702499389648437 66.582504272460937 65.319999694824219 64.029998779296875 62.697502136230469 61.287498474121094 59.862499237060547 58.362503051757812 56.805000305175781 55.362503051757813 53.400001525878906 52.259998321533203 50.529998779296875 48.102500915527344 45.534999847412109 43.4375 40.547500610351563 39.322502136230469 38.347499847412109 36.557498931884766 35.264999389648438 34.222499847412109 33.25 32.139999389648438 31.007499694824219 29.382499694824219 28.190000534057617 26.629999160766602 24.842500686645508 23.797500610351563 22.585000991821289 21.337499618530273 20.452499389648438 19.422500610351563 18.217498779296875 17.212499618530273 15.090000152587891 14.805000305175781 14.789999961853027 10.582500457763672 7.9224996566772461 6.8949999809265137 6.7325000762939453 7.6550002098083496 11.637499809265137 10.835000038146973 10.130000114440918 9.4250001907348633 8.7574996948242187 8.1049995422363281 7.6475000381469727 7.2775001525878906 6.9574999809265137 6.7950000762939453 6.2600002288818359 5.619999885559082 4.8450002670288086 4.494999885559082 5.8050003051757812 5.5999999046325684 5.8900003433227539 4.1024999618530273 4.0349998474121094 4.4650001525878906 4.6599998474121094 5.2350001335144043 5.7825002670288086 6.0799999237060547 6.8324999809265137 7.2024998664855957 7.8824996948242188 8.5599994659423828 8.9174995422363281 9.8150005340576172 11.680000305175781 12.282500267028809 13.015000343322754 13.262500762939453 13.905000686645508 14.407500267028809 15.467499732971191 16.344999313354492 16.635000228881836 17.114999771118164 17.454999923706055 17.862499237060547 18.735000610351563 19.237499237060547
91.735000610351563 91.739997863769531 91.625 91.400001525878906 91.089996337890625 90.737503051757813 90.277496337890625 89.705001831054687 89.112503051757813 88.400001525878906 87.217498779296875 86.080001831054687 84.767501831054688 83.027496337890625 81.1824951171875 79.1875 77.089996337890625 74.9375 72.75250244140625 70.87750244140625 68.62249755859375 66.625 65.642501831054687 65.455001831054687 66.072502136230469 67.12249755859375 68.839996337890625 70.805000305175781 72.794998168945313 75.044998168945313 77.525001525878906 80.802497863769531 84.8125 88.5625 91.287498474121094 93.397499084472656 94.862503051757813 95.867500305175781 96.297500610351563 96.292495727539063 95.745002746582031 94.817497253417969 93.995002746582031 93.084999084472656 91.764999389648438 90.360000610351563 88.742500305175781 86.9375 84.87750244140625 82.604995727539062 80.279998779296875 76.022499084472656 73.050003051757813 70.132499694824219 67.277496337890625 64.535003662109375 61.762500762939453 58.842498779296875 55.970001220703125 52.970001220703125 50.097499847412109 48.277500152587891 47.197502136230469 48.159999847412109 50.180000305175781 53.165000915527344 57.047500610351563 61.642501831054688 66.1925048828125 69.709999084472656 71.352500915527344 70.967498779296875 70.012496948242187 68.75 67.705001831054687 66.489997863769531 65.180000305175781 63.854999542236328 62.467498779296875 60.944999694824219 59.367500305175781 57.724998474121094 56.1875 54.492500305175781 53.090000152587891 51.604999542236328 49.342498779296875 46.637500762939453 44.375 41.060001373291016 39.794998168945313 38.987499237060547 37.107498168945313 35.642498016357422 34.512500762939453 33.284999847412109 32.167499542236328 30.917499542236328 29.274999618530273 28.117500305175781 26.602500915527344 25.042499542236328 23.909999847412109 23.135000228881836 22.420000076293945 21.357500076293945 20.282499313354492 19.479999542236328 17.982500076293945 14.859999656677246 13.694999694824219 10.177499771118164 7.9475002288818359 7.434999942779541 7.065000057220459 7.2049999237060547 7.3425002098083496 9.3199996948242187 11.362500190734863 10.220000267028809 9.6674995422363281 8.5325002670288086 7.9925003051757812 7.8499999046325684 7.3000001907348633 6.6624999046325684 6.1149997711181641 5.6599998474121094 5.7100000381469727 6.3625001907348633 6.5174999237060547 6.2249999046325684 6.0399999618530273 5.7699999809265137 5.059999942779541 4.5399999618530273 4.9200000762939453 5.0275001525878906 5.0500001907348633 6.1700000762939453 6.0750002861022949 6.8524999618530273 7.0925002098083496 7.682499885559082 8.4099998474121094 8.7825002670288086 9.2399997711181641 11.220000267028809 11.797499656677246 11.989999771118164 13.012499809265137 13.252500534057617 13.930000305175781 14.670000076293945 15.382499694824219 16.097499847412109 16.170000076293945 16.717498779296875 17.069999694824219 17.832500457763672 18.579999923706055
91.532501220703125 91.572502136230469 91.652503967285156 91.552505493164063 91.334999084472656 91.067497253417969 90.764999389648438 90.455001831054687 89.952499389648437 89.272499084472656 88.495002746582031 87.257499694824219 86.572502136230469 85.354995727539063 83.947494506835938 82.387496948242188 80.444999694824219 78.425003051757813 76.349998474121094 74.202499389648438 72.375 70.145004272460938 69.084999084472656 68.732498168945313 68.949996948242187 70.019996643066406 72.040000915527344 74.294998168945313 76.602500915527344 78.992500305175781 81.427497863769531 84.139999389648438 87.425003051757813 90.102500915527344 92.560005187988281 94.410003662109375 95.822502136230469 96.652503967285156 96.894996643066406 96.7550048828125 96.192497253417969 95.534996032714844 94.672500610351562 93.584999084472656 92.430000305175781 91.020004272460938 89.485000610351563 87.762496948242188 85.81500244140625 83.577499389648438 81.764999389648437 77.589996337890625 74.827499389648437 72.020004272460938 69.180000305175781 66.384994506835937 63.582500457763672 60.709999084472656 57.840000152587891 54.779998779296875 51.735000610351563 49.587501525878906 48.417499542236328 49.457500457763672 51.200000762939453 53.970001220703125 57.775001525878906 62.279998779296875 66.799995422363281 70.480003356933594 72.5625 72.317497253417969 71.205001831054687 69.925003051757813 68.889999389648438 67.607498168945313 66.345001220703125 65.0050048828125 63.572502136230469 61.965000152587891 60.290000915527344 58.602500915527344 56.927501678466797 55.447502136230469 53.697502136230469 52.24749755859375 50.192501068115234 47.654998779296875 45.314998626708984 43.87750244140625 40.707500457763672 39.507499694824219 37.607498168945313 35.944999694824219 34.502498626708984 33.080001831054688 31.969999313354492 30.762500762939453 29.125 27.627500534057617 26.772500991821289 25.772499084472656 24.552499771118164 23.702499389648438 22.787500381469727 21.622499465942383 20.690000534057617 19.840000152587891 17.489999771118164 14.340000152587891 8.2750005722045898 7.2974996566772461 6.7600002288818359 6.6374998092651367 7.4474997520446777 7.6649999618530273 7.7624998092651367 7.8600001335144043 7.7824997901916504 6.3524999618530273 9.6949996948242187 8.9925003051757813 7.75 7.1500000953674316 6.3949999809265137 6.0524997711181641 6.2349996566772461 6.0475001335144043 6.1624999046325684 6.315000057220459 6.5 6.2425003051757812 6.1424999237060547 5.9099998474121094 5.7274999618530273 5.679999828338623 5.4025001525878906 5.502500057220459 5.9825000762939453 6.369999885559082 6.380000114440918 6.630000114440918 7.247499942779541 7.5250000953674316 7.6050000190734863 8.2425003051757813 8.8299999237060547 10.329999923706055 11.537500381469727 11.809999465942383 12.414999961853027 12.692500114440918 13.407499313354492 13.564999580383301 14.319999694824219 15.347499847412109 15.930000305175781 16.215000152587891 16.452499389648438 16.912500381469727 17.387500762939453
91.272499084472656 91.447502136230469 91.540000915527344 91.56500244140625 91.504997253417969 91.3175048828125 91.150001525878906 90.915000915527344 90.552497863769531 90.037498474121094 89.449996948242188 88.827499389648438 87.8125 87.212501525878906 86.31500244140625 85.207496643066406 83.740005493164063 82.097496032714844 80.290000915527344 78.117500305175781 76.029998779296875 74.192497253417969 73.117500305175781 72.510002136230469 72.520004272460938 73.347496032714844 74.930000305175781 77.50250244140625 80.132499694824219 82.56500244140625 84.889999389648437 87.462501525878906 89.772499084472656 91.677497863769531 93.427497863769531 94.959999084472656 96.237503051757813 97.05499267578125 97.260002136230469 96.87249755859375 96.479995727539062 95.915000915527344 95.125 94.102500915527344 92.952499389648438 91.582504272460938 90.120002746582031 88.504997253417969 86.677497863769531 84.647499084472656 82.839996337890625 79.339996337890625 76.837501525878906 74.202499389648438 71.389999389648437 68.512496948242188 65.595001220703125 62.614997863769531 59.610000610351562 56.370002746582031 53.245002746582031 50.942501068115234 49.972499847412109 50.744998931884766 52.542499542236328 55.217498779296875 58.837501525878906 63.134998321533203 67.365005493164062 71.009994506835938 73.3074951171875 73.364997863769531 72.62249755859375 71.402496337890625 70.292495727539062 68.964996337890625 67.557502746582031 66.1199951171875 64.584999084472656 62.924999237060547 61.197502136230469 59.482498168945313 57.764999389648438 56.292499542236328 54.132499694824219 52.74749755859375 50.794998168945312 48.432498931884766 46.114997863769531 44.369998931884766 40.720001220703125 39.404998779296875 37.635002136230469 35.630001068115234 34.029998779296875 32.68499755859375 31.627500534057617 30.342498779296875 28.889999389648437 27.795000076293945 27.107500076293945 26.067499160766602 24.729999542236328 23.467500686645508 22.619998931884766 21.715000152587891 20.755001068115234 19.917499542236328 17.932498931884766 10.222499847412109 7.7950000762939453 7.4549999237060547 6.7325000762939453 7.1525001525878906 7.5974998474121094 7.7325000762939453 7.617499828338623 7.7800002098083496 7.8600001335144043 6.6525001525878906 8.4399995803833008 7.6549997329711914 6.255000114440918 5.7375001907348633 5.5525002479553223 5.257500171661377 5.880000114440918 5.684999942779541 6.1725001335144043 6.119999885559082 6.192500114440918 6.1774997711181641 6.1574997901916504 5.867499828338623 5.6175003051757812 5.8675003051757813 5.559999942779541 5.7074999809265137 6.1449999809265137 6.7699999809265137 6.7325000762939453 7.0799999237060547 7.2425003051757812 7.2325000762939453 7.4000000953674316 8.0275001525878906 8.7674999237060547 9.8575000762939453 11.372500419616699 11.600000381469727 12.194999694824219 12.450000762939453 12.845000267028809 13.172499656677246 13.770000457763672 14.552499771118164 14.764999389648438 15.260000228881836 15.449999809265137 16.227500915527344 16.975000381469727
90.970001220703125 91.2449951171875 91.402503967285156 91.480003356933594 91.514999389648438 91.447502136230469 91.334999084472656 91.182502746582031 90.982498168945313 90.662498474121094 90.270004272460938 89.8125 88.857498168945313 88.742500305175781 88.165000915527344 87.507499694824219 86.625 85.385002136230469 84.277496337890625 82.464996337890625 80.572502136230469 79.032501220703125 78.152496337890625 77.352500915527344 77.027496337890625 77.444999694824219 78.875 81.139999389648438 83.334999084472656 85.417503356933594 87.757499694824219 90.012496948242188 91.569999694824219 92.819999694824219 93.99749755859375 95.224998474121094 96.317497253417969 97.069999694824219 97.197494506835938 96.895004272460938 96.702499389648437 96.207504272460938 95.492500305175781 94.514999389648438 93.419998168945313 92.080001831054688 90.634994506835938 89.149993896484375 87.479995727539062 85.589996337890625 83.910003662109375 81.012496948242188 78.787498474121094 76.217498779296875 73.510002136230469 70.650001525878906 67.604995727539063 64.467498779296875 61.229999542236328 57.814998626708984 54.56500244140625 52.457500457763672 50.389999389648438 52.150001525878906 53.935001373291016 56.617500305175781 60.139999389648438 64.220001220703125 68.229995727539062 71.55999755859375 73.617500305175781 74.139999389648437 73.797500610351563 72.972503662109375 71.892501831054687 70.457504272460938 68.837493896484375 67.239997863769531 65.629997253417969 63.900001525878906 62.122501373291016 60.347499847412109 58.637500762939453 57.084999084472656 55.002498626708984 53.227500915527344 51.357498168945313 49.082496643066406 46.837501525878906 44.887500762939453 41.242500305175781 38.735000610351563 36.787498474121094 35.107498168945313 33.869998931884766 32.3125 31.629999160766602 30.204999923706055 28.907499313354492 27.957500457763672 27.264999389648438 26.200000762939453 24.672500610351563 23.127500534057617 22.432500839233398 22.267499923706055 20.807498931884766 19.829500198364258 11.694999694824219 7.8524999618530273 7.6350002288818359 7.179999828338623 6.7600002288818359 6.6050000190734863 7.0950002670288086 7.255000114440918 7.8024997711181641 7.9049997329711914 7.4699997901916504 7.1449999809265137 6.0974998474121094 5.9499998092651367 5.992499828338623 5.815000057220459 5.5100002288818359 5.3350000381469727 5.6725001335144043 5.6774997711181641 6.2899999618530273 6.2074999809265137 6.192500114440918 6.002500057220459 5.7699999809265137 5.5425000190734863 5.5150003433227539 6.3850002288818359 5.6499996185302734 5.875 5.9674997329711914 6.182499885559082 6.7725000381469727 7.1075000762939453 7.2150001525878906 7.315000057220459 7.5425000190734863 7.7399997711181641 8.3875007629394531 9.6975002288818359 11.075000762939453 11.387499809265137 11.8125 12.055000305175781 12.337499618530273 12.734999656677246 13.215000152587891 13.729999542236328 13.932499885559082 14.770000457763672 15.060000419616699 15.292499542236328 16.319999694824219
90.607498168945313 90.882499694824219 91.115005493164062 91.307502746582031 91.4324951171875 91.432502746582031 91.402496337890625 91.342498779296875 91.1875 91.089996337890625 90.94000244140625 90.6824951171875 90.319999694824219 89.919998168945313 89.69000244140625 89.25250244140625 88.739997863769531 87.94000244140625 87.052497863769531 86.175003051757813 85.18499755859375 84.137496948242188 83.375 82.760002136230469 82.322502136230469 82.347496032714844 83.297500610351563 84.964996337890625 86.5574951171875 87.957504272460938 89.834999084472656 91.615005493164063 92.779998779296875 93.697494506835938 94.677497863769531 95.727500915527344 96.557502746582031 97.047500610351563 97.050003051757812 96.99749755859375 96.87249755859375 96.510002136230469 95.867500305175781 94.907501220703125 93.837501525878906 92.532501220703125 91.082504272460938 89.650001525878906 88.072494506835937 86.334999084472656 84.822494506835938 82.322502136230469 80.235000610351563 77.862503051757813 75.3074951171875 72.477500915527344 69.455001831054687 66.227500915527344 62.817501068115234 59.147499084472656 55.637500762939453 54.027500152587891 52.637500762939453 53.607498168945313 55.400001525878906 58.137500762939453 61.6875 65.617500305175781 69.354995727539063 72.327499389648438 74.217498779296875 74.875 74.657501220703125 73.912506103515625 73.095001220703125 71.652496337890625 70.017501831054688 68.367500305175781 66.68499755859375 64.904998779296875 63.075000762939453 61.247501373291016 59.462501525878906 57.682502746582031 56.137500762939453 53.645000457763672 51.877498626708984 49.669998168945313 47.485000610351563 45.794998168945313 42.794998168945313 38.832500457763672 37.069999694824219 37.255001068115234 34.084999084472656 32.395000457763672 31.022499084472656 29.405000686645508 28 27.0625 26.502498626708984 26.26249885559082 24.682500839233398 22.895000457763672 22.479999542236328 22.272499084472656 21.764999389648437 19.769001007080078 9.3325004577636719 7.744999885559082 7.4149999618530273 7.0425000190734863 6.6675000190734863 6.179999828338623 6.247499942779541 6.2325000762939453 6.9850001335144043 6.7799997329711914 6.8350000381469727 6.7950000762939453 5.6100001335144043 5.9274997711181641 6.0124998092651367 5.877500057220459 5.8424997329711914 6.0550003051757813 5.8625001907348633 5.9850001335144043 5.875 5.9250001907348633 6.0399999618530273 5.8975000381469727 5.5824999809265137 5.4000000953674316 5.372499942779541 5.4574999809265137 5.809999942779541 5.6949996948242188 5.815000057220459 5.934999942779541 6.3524999618530273 6.8675003051757812 6.929999828338623 7.117499828338623 7.5625 7.6774997711181641 8.505000114440918 9.0299997329711914 10.944999694824219 11.125 11.449999809265137 11.767499923706055 11.897500038146973 12.625 13.052499771118164 13.444999694824219 13.757499694824219 13.9375 14.332500457763672 14.732500076293945 15.282499313354492
90.235000610351563 90.479995727539063 90.757499694824219 91.044998168945313 91.260002136230469 91.389999389648438 91.410003662109375 91.472503662109375 91.485000610351563 91.537498474121094 91.507499694824219 91.387496948242188 91.262496948242188 90.790000915527344 90.767501831054687 90.587501525878906 90.242500305175781 89.790000915527344 89.557502746582031 89.050003051757813 88.635002136230469 88.349998474121094 88.102500915527344 87.709999084472656 87.347503662109375 87.342498779296875 87.732498168945313 88.334999084472656 89.177497863769531 90.285003662109375 91.487503051757813 92.800003051757813 93.860000610351563 94.702499389648438 95.504997253417969 96.279998779296875 96.857498168945313 97.169998168945313 97.137496948242188 97.135002136230469 97.047500610351563 96.6925048828125 96.120002746582031 95.229995727539063 94.169998168945313 92.910003662109375 91.527496337890625 90.087501525878906 88.610000610351563 87.057502746582031 85.692497253417969 83.360000610351563 81.457504272460938 79.300003051757813 76.912498474121094 74.152496337890625 71.087501525878906 67.837501525878906 64.245002746582031 60.302497863769531 56.737499237060547 54.652500152587891 54.412498474121094 55.189998626708984 57.127498626708984 59.955001831054688 63.382499694824219 67.137496948242188 70.602500915527344 73.347503662109375 75.027496337890625 75.614997863769531 75.24749755859375 74.519996643066406 73.709999084472656 72.4425048828125 71.014999389648437 69.462493896484375 67.712501525878906 65.87249755859375 63.982501983642578 62.097499847412109 60.205001831054687 58.282501220703125 56.62750244140625 53.917499542236328 52.284999847412109 50.197502136230469 48.262500762939453 46.762500762939453 41.650001525878906 41.154998779296875 39.819999694824219 38.432498931884766 35.520000457763672 33.002498626708984 31.587499618530273 30.395000457763672 28.130001068115234 25.722499847412109 25.034999847412109 25.922500610351562 23.684999465942383 23.030000686645508 22.147499084472656 21.084999084472656 20.069999694824219 19.737499237060547 15.262500762939453 7.377500057220459 7.255000114440918 6.880000114440918 6.5550003051757812 6.1675000190734863 5.7399997711181641 5.507500171661377 5.5349998474121094 6.1399998664855957 6.6800003051757813 6.6500000953674316 6.1575002670288086 6.1024999618530273 6.1125001907348633 6.1675000190734863 6.0524997711181641 6.1475000381469727 6.5900001525878906 6.6675000190734863 6.7650003433227539 5.9699997901916504 5.8499999046325684 5.807499885559082 5.625 5.2274999618530273 5.317500114440918 5.4449996948242187 5.5425000190734863 5.6475000381469727 5.7125000953674316 5.9699997901916504 5.9650001525878906 6.4000000953674316 6.630000114440918 6.9175000190734863 7.3949999809265137 7.6350002288818359 8.119999885559082 8.6175003051757812 10.117500305175781 10.555000305175781 11.037500381469727 11.3125 11.664999961853027 12.094999313354492 12.492500305175781 12.877500534057617 13.422500610351563 13.927499771118164 14.08750057220459 14.992500305175781 15.059999465942383
89.555000305175781 89.987503051757813 90.317497253417969 90.672500610351562 90.902496337890625 91.302497863769531 91.525001525878906 91.637496948242188 91.74749755859375 91.902496337890625 92.125 92.237503051757813 92.214996337890625 92.167495727539062 91.832504272460938 91.672500610351563 91.384994506835938 90.949996948242188 91.082504272460938 91.1300048828125 91.172500610351563 91.080001831054687 91.020004272460938 91 90.892501831054688 90.962501525878906 91.205001831054688 91.4324951171875 91.629997253417969 92.282501220703125 93.014999389648438 93.955001831054688 94.870002746582031 95.544998168945313 96.165000915527344 96.81500244140625 97.297500610351563 97.444999694824219 97.264999389648438 97.337501525878906 97.199996948242188 96.845001220703125 96.260002136230469 95.547500610351563 94.607498168945313 93.395004272460938 92.092498779296875 90.762496948242188 89.270004272460938 87.81500244140625 86.214996337890625 84.375 82.592498779296875 80.617500305175781 78.352500915527344 75.535003662109375 72.43499755859375 69.125 65.392501831054687 61.142501831054688 57.755001068115234 56.297500610351562 56.584999084472656 57.382499694824219 59.242500305175781 62.075000762939453 65.4324951171875 68.860000610351563 71.990005493164063 74.3699951171875 75.729995727539063 76.1925048828125 75.949996948242188 75.232498168945313 74.485000610351563 73.379997253417969 72.06500244140625 70.522499084472656 68.757499694824219 66.912498474121094 64.947502136230469 62.9375 60.817501068115234 58.775001525878906 57.06500244140625 54.395000457763672 52.62249755859375 50.75 49.272499084472656 43.742500305175781 42.584999084472656 41.592498779296875 40.142501831054687 38.4375 35.902500152587891 33.862499237060547 32.3125 30.434999465942383 29.180000305175781 27.395000457763672 23.972499847412109 23.532499313354492 22.952499389648438 22.264999389648438 21.942499160766602 20.977500915527344 20.25 19.522499084472656 13.549999237060547 7.3524999618530273 6.8949999809265137 6.5500001907348633 6.1399998664855957 5.8350000381469727 5.6175003051757812 5.4449996948242187 5.434999942779541 5.6675000190734863 5.4025001525878906 6.6075000762939453 7.0174999237060547 6.632500171661377 6.4749999046325684 6.7049999237060547 6.6350002288818359 6.5 6.6725001335144043 6.7150001525878906 6.8824996948242187 5.8600001335144043 5.7300000190734863 5.7624998092651367 5.632500171661377 5.3924999237060547 5.3524999618530273 5.4025001525878906 5.3225002288818359 5.3850002288818359 5.3450002670288086 5.6100001335144043 6 5.8999996185302734 6.369999885559082 6.8550000190734863 7.257500171661377 7.7375001907348633 8.1649999618530273 8.5600004196166992 9.4925003051757813 10.192500114440918 10.569999694824219 11.017499923706055 11.039999961853027 11.770000457763672 12.274999618530273 12.639999389648438 13.154999732971191 13.407499313354492 13.582499504089355 14.194999694824219 14.337499618530273
